# .PCD v0.7 - Point Cloud Data file format
VERSION 0.7
FIELDS x y z
SIZE 4 4 4
TYPE F F F
COUNT 1 1 1
WIDTH 1474
HEIGHT 1
VIEWPOINT 0 0 0 1 0 0 0
POINTS 1474
DATA ascii
-0.067723855 0.050254218 1.5890001
-0.06532605 0.050475605 1.5960001
-0.062629901 0.050475605 1.5960001
-0.059933752 0.050475605 1.5960001
-0.057237606 0.050475605 1.5960001
-0.054541454 0.050475605 1.5960001
-0.051845308 0.050475605 1.5960001
-0.049149159 0.050475605 1.5960001
-0.04645301 0.050475605 1.5960001
-0.043756861 0.050475605 1.5960001
-0.041060716 0.050475605 1.5960001
-0.038364567 0.050475605 1.5960001
-0.035824858 0.050696988 1.603
-0.033116885 0.050696988 1.603
-0.030408913 0.050696988 1.603
-0.02770094 0.050696988 1.603
-0.025117699 0.050950002 1.6110001
-0.022396212 0.050950002 1.6110001
-0.019760212 0.051171385 1.618
-0.017026899 0.051171385 1.618
-0.014364261 0.051424395 1.626
-0.011617433 0.051424395 1.626
-0.0088706054 0.051424395 1.626
-0.0061237784 0.051424395 1.626
-0.0033769512 0.051424395 1.626
-0.00063012395 0.051424395 1.626
0.0021167034 0.051424395 1.626
0.0048635309 0.051424395 1.626
0.0076478012 0.051677406 1.6340001
0.010408143 0.051677406 1.6340001
0.013168485 0.051677406 1.6340001
0.015928827 0.051677406 1.6340001
0.018769233 0.051898792 1.641
0.0215414 0.051898792 1.641
0.024313567 0.051898792 1.641
0.027217779 0.052151799 1.649
0.03000346 0.052151799 1.649
0.032789141 0.052151799 1.649
0.035747413 0.05240481 1.6570001
0.038546607 0.05240481 1.6570001
0.041345805 0.05240481 1.6570001
0.044358134 0.05265782 1.6650001
-0.27322623 0.045579512 1.368
-0.27091524 0.045579512 1.368
-0.26860425 0.045579512 1.368
-0.26629329 0.045579512 1.368
-0.2639823 0.045579512 1.368
-0.2616713 0.045579512 1.368
-0.25936031 0.045579512 1.368
-0.25704935 0.045579512 1.368
-0.25473836 0.045579512 1.368
-0.25242737 0.045579512 1.368
-0.25011638 0.045579512 1.368
-0.2478054 0.045579512 1.368
-0.24549443 0.045579512 1.368
-0.24318343 0.045579512 1.368
-0.24192894 0.045779418 1.3740001
-0.23960781 0.045779418 1.3740001
-0.23728669 0.045779418 1.3740001
-0.23496558 0.045779418 1.3740001
-0.23264445 0.045779418 1.3740001
-0.23116148 0.045946013 1.3790001
-0.2288319 0.045946013 1.3790001
-0.22748785 0.046145923 1.3850001
-0.22514814 0.046145923 1.3850001
-0.22361279 0.046312515 1.3900001
-0.22126466 0.046312515 1.3900001
-0.21986146 0.046512425 1.396
-0.21750319 0.046512425 1.396
-0.2151449 0.046512425 1.396
-0.21278661 0.046512425 1.396
-0.21042833 0.046512425 1.396
-0.20896433 0.046712335 1.4020001
-0.20659591 0.046712335 1.4020001
-0.20495583 0.046878926 1.4070001
-0.20257896 0.046878926 1.4070001
-0.20105584 0.047078837 1.4130001
-0.19951244 0.047278747 1.419
-0.19794877 0.047478657 1.4250001
-0.1955415 0.047478657 1.4250001
-0.19394742 0.047678567 1.4310001
-0.19153 0.047678567 1.4310001
-0.18990552 0.047878478 1.437
-0.18747798 0.047878478 1.437
-0.18582308 0.048078388 1.4430001
-0.18414791 0.048278298 1.4490001
-0.18245248 0.048478208 1.455
-0.18073677 0.048678119 1.4610001
-0.17826869 0.048678119 1.4610001
-0.17652257 0.048878029 1.4670001
-0.17475617 0.049077936 1.473
-0.17308646 0.049311168 1.48
-0.17058629 0.049311168 1.48
-0.16876753 0.049511079 1.4860001
-0.1662572 0.049511079 1.4860001
-0.16374688 0.049511079 1.4860001
-0.16188757 0.049710985 1.4920001
-0.16011482 0.049944218 1.4990001
-0.1583184 0.050177444 1.506
-0.1557743 0.050177444 1.506
-0.15384066 0.050377354 1.5120001
-0.15128642 0.050377354 1.5120001
-0.14873217 0.050377354 1.5120001
-0.14685468 0.050610583 1.5190001
-0.14485854 0.050810494 1.5250001
-0.14293544 0.051043719 1.5320001
-0.14034741 0.051043719 1.5320001
-0.13838883 0.051276952 1.539
-0.13578896 0.051276952 1.539
-0.13318911 0.051276952 1.539
-0.13058925 0.051276952 1.539
-0.1279894 0.051276952 1.539
-0.12595986 0.051510178 1.5460001
-0.12334818 0.051510178 1.5460001
-0.1207365 0.051510178 1.5460001
-0.11865966 0.051743407 1.5530001
-0.11655918 0.051976636 1.5600001
-0.11392385 0.051976636 1.5600001
-0.11128852 0.051976636 1.5600001
-0.10865317 0.051976636 1.5600001
-0.10649357 0.052209865 1.567
-0.10384642 0.052209865 1.567
-0.10119925 0.052209865 1.567
-0.0985521 0.052209865 1.567
-0.095904939 0.052209865 1.567
-0.093257785 0.052209865 1.567
-0.091015391 0.052443091 1.5740001
-0.088356413 0.052443091 1.5740001
-0.086078547 0.05267632 1.5810001
-0.083407737 0.05267632 1.5810001
-0.081145465 0.052942868 1.5890001
-0.078461148 0.052942868 1.5890001
-0.075776823 0.052942868 1.5890001
-0.073092498 0.052942868 1.5890001
-0.07040818 0.052942868 1.5890001
-0.067723855 0.052942868 1.5890001
-0.06503953 0.052942868 1.5890001
-0.062629901 0.053176098 1.5960001
-0.059933752 0.053176098 1.5960001
-0.057237606 0.053176098 1.5960001
-0.054541454 0.053176098 1.5960001
-0.051845308 0.053176098 1.5960001
-0.049149159 0.053176098 1.5960001
-0.04645301 0.053176098 1.5960001
-0.043756861 0.053176098 1.5960001
-0.041060716 0.053176098 1.5960001
-0.038364567 0.053176098 1.5960001
-0.035824858 0.053409323 1.603
-0.033116885 0.053409323 1.603
-0.030408913 0.053409323 1.603
-0.027839188 0.053675871 1.6110001
-0.025117699 0.053675871 1.6110001
-0.022493526 0.053909101 1.618
-0.019760212 0.053909101 1.618
-0.017026899 0.053909101 1.618
-0.014364261 0.054175649 1.626
-0.011617433 0.054175649 1.626
-0.0088706054 0.054175649 1.626
-0.0061237784 0.054175649 1.626
-0.0033769512 0.054175649 1.626
-0.00063012395 0.054175649 1.626
0.0021167034 0.054175649 1.626
0.0048635309 0.054175649 1.626
0.0076478012 0.054442193 1.6340001
0.010408143 0.054442193 1.6340001
0.013168485 0.054442193 1.6340001
0.015928827 0.054442193 1.6340001
0.018689169 0.054442193 1.6340001
0.02144951 0.054442193 1.6340001
0.024313567 0.054675423 1.641
0.027085735 0.054675423 1.641
0.03000346 0.054941967 1.649
0.032789141 0.054941967 1.649
0.035574824 0.054941967 1.649
0.038360506 0.054941967 1.649
0.041146189 0.054941967 1.649
0.044144999 0.055208515 1.6570001
-0.27210349 0.048104279 1.3740001
-0.26860425 0.047894217 1.368
-0.26629329 0.047894217 1.368
-0.2639823 0.047894217 1.368
-0.2616713 0.047894217 1.368
-0.25936031 0.047894217 1.368
-0.25704935 0.047894217 1.368
-0.25473836 0.047894217 1.368
-0.25242737 0.047894217 1.368
-0.25011638 0.047894217 1.368
-0.2478054 0.047894217 1.368
-0.24549443 0.047894217 1.368
-0.24318343 0.047894217 1.368
-0.24087246 0.047894217 1.368
-0.23856147 0.047894217 1.368
-0.23728669 0.048104279 1.3740001
-0.23496558 0.048104279 1.3740001
-0.23264445 0.048104279 1.3740001
-0.23032333 0.048104279 1.3740001
-0.22800222 0.048104279 1.3740001
-0.22650234 0.04827933 1.3790001
-0.22417277 0.04827933 1.3790001
-0.22280844 0.048489396 1.3850001
-0.22126466 0.048664447 1.3900001
-0.21891651 0.048664447 1.3900001
-0.21656837 0.048664447 1.3900001
-0.2151449 0.048874509 1.396
-0.21278661 0.048874509 1.396
-0.21042833 0.048874509 1.396
-0.20807004 0.048874509 1.396
-0.20659591 0.04908457 1.4020001
-0.20495583 0.049259622 1.4070001
-0.20257896 0.049259622 1.4070001
-0.20105584 0.049469687 1.4130001
-0.19866884 0.049469687 1.4130001
-0.19711529 0.049679745 1.419
-0.1955415 0.04988981 1.4250001
-0.19313422 0.04988981 1.4250001
-0.19153 0.050099872 1.4310001
-0.18990552 0.050309934 1.437
-0.18747798 0.050309934 1.437
-0.18582308 0.050519999 1.4430001
-0.18414791 0.050730061 1.4490001
-0.18245248 0.050940122 1.455
-0.17999452 0.050940122 1.455
-0.17826869 0.051150184 1.4610001
-0.17580059 0.051150184 1.4610001
-0.17404434 0.051360246 1.4670001
-0.17226781 0.051570307 1.473
-0.17058629 0.051815383 1.48
-0.1680861 0.051815383 1.48
-0.1662572 0.052025445 1.4860001
-0.16374688 0.052025445 1.4860001
-0.16188757 0.052235506 1.4920001
-0.16011482 0.052480582 1.4990001
-0.1583184 0.05272565 1.506
-0.1557743 0.05272565 1.506
-0.15384066 0.052935716 1.5120001
-0.15128642 0.052935716 1.5120001
-0.14942075 0.053180788 1.5190001
-0.14685468 0.053180788 1.5190001
-0.14485854 0.053390849 1.5250001
-0.14228234 0.053390849 1.5250001
-0.14034741 0.053635921 1.5320001
-0.13775937 0.053635921 1.5320001
-0.13517135 0.053635921 1.5320001
-0.13258332 0.053635921 1.5320001
-0.13058925 0.053880997 1.539
-0.1279894 0.053880997 1.539
-0.12538953 0.053880997 1.539
-0.12334818 0.054126065 1.5460001
-0.1207365 0.054126065 1.5460001
-0.11865966 0.054371141 1.5530001
-0.11603615 0.054371141 1.5530001
-0.11392385 0.054616213 1.5600001
-0.11128852 0.054616213 1.5600001
-0.10865317 0.054616213 1.5600001
-0.10601784 0.054616213 1.5600001
-0.10338251 0.054616213 1.5600001
-0.10119925 0.054861285 1.567
-0.0985521 0.054861285 1.567
-0.095904939 0.054861285 1.567
-0.093257785 0.054861285 1.567
-0.091015391 0.055106357 1.5740001
-0.088356413 0.055106357 1.5740001
-0.086078547 0.055351432 1.5810001
-0.083407737 0.055351432 1.5810001
-0.081145465 0.055631515 1.5890001
-0.078461148 0.055631515 1.5890001
-0.075776823 0.055631515 1.5890001
-0.073092498 0.055631515 1.5890001
-0.07040818 0.055631515 1.5890001
-0.067723855 0.055631515 1.5890001
-0.06503953 0.055631515 1.5890001
-0.062629901 0.055876587 1.5960001
-0.059933752 0.055876587 1.5960001
-0.057237606 0.055876587 1.5960001
-0.054541454 0.055876587 1.5960001
-0.051845308 0.055876587 1.5960001
-0.049149159 0.055876587 1.5960001
-0.04645301 0.055876587 1.5960001
-0.043756861 0.055876587 1.5960001
-0.041060716 0.055876587 1.5960001
-0.038364567 0.055876587 1.5960001
-0.035824858 0.056121662 1.603
-0.033116885 0.056121662 1.603
-0.030408913 0.056121662 1.603
-0.027839188 0.056401741 1.6110001
-0.025117699 0.056401741 1.6110001
-0.022396212 0.056401741 1.6110001
-0.019760212 0.056646816 1.618
-0.017026899 0.056646816 1.618
-0.014293587 0.056646816 1.618
-0.011560275 0.056646816 1.618
-0.0088269627 0.056646816 1.618
-0.0060936492 0.056646816 1.618
-0.0033769512 0.056926899 1.626
-0.00063012395 0.056926899 1.626
0.0021167034 0.056926899 1.626
0.0048635309 0.056926899 1.626
0.0076103583 0.056926899 1.626
0.010408143 0.057206985 1.6340001
0.013168485 0.057206985 1.6340001
0.015928827 0.057206985 1.6340001
0.018689169 0.057206985 1.6340001
0.02144951 0.057206985 1.6340001
0.024313567 0.057452053 1.641
0.027085735 0.057452053 1.641
0.03000346 0.057732139 1.649
0.032789141 0.057732139 1.649
0.035574824 0.057732139 1.649
0.038360506 0.057732139 1.649
0.041146189 0.057732139 1.649
0.043931868 0.057732139 1.649
-0.27091524 0.050208926 1.368
-0.26978236 0.050429139 1.3740001
-0.26629329 0.050208926 1.368
-0.2639823 0.050208926 1.368
-0.2616713 0.050208926 1.368
-0.25936031 0.050208926 1.368
-0.25704935 0.050208926 1.368
-0.25473836 0.050208926 1.368
-0.25242737 0.050208926 1.368
-0.25011638 0.050208926 1.368
-0.2478054 0.050208926 1.368
-0.24549443 0.050208926 1.368
-0.24318343 0.050208926 1.368
-0.24087246 0.050208926 1.368
-0.23856147 0.050208926 1.368
-0.23625049 0.050208926 1.368
-0.2339395 0.050208926 1.368
-0.23162852 0.050208926 1.368
-0.23032333 0.050429139 1.3740001
-0.22800222 0.050429139 1.3740001
-0.2256811 0.050429139 1.3740001
-0.22417277 0.050612651 1.3790001
-0.22184321 0.050612651 1.3790001
-0.22046874 0.050832868 1.3850001
-0.21891651 0.051016375 1.3900001
-0.21656837 0.051016375 1.3900001
-0.2151449 0.051236592 1.396
-0.21187206 0.051016375 1.3900001
-0.21042833 0.051236592 1.396
-0.20896433 0.051456805 1.4020001
-0.20659591 0.051456805 1.4020001
-0.20495583 0.051640321 1.4070001
-0.20257896 0.051640321 1.4070001
-0.20105584 0.051860534 1.4130001
-0.19866884 0.051860534 1.4130001
-0.19711529 0.052080747 1.419
-0.19471815 0.052080747 1.419
-0.19313422 0.052300964 1.4250001
-0.19072695 0.052300964 1.4250001
-0.18990552 0.052741393 1.437
-0.18747798 0.052741393 1.437
-0.18582308 0.052961607 1.4430001
-0.18414791 0.05318182 1.4490001
-0.18245248 0.053402036 1.455
-0.17999452 0.053402036 1.455
-0.17753658 0.053402036 1.455
-0.17580059 0.05362225 1.4610001
-0.17404434 0.053842466 1.4670001
-0.17226781 0.054062679 1.473
-0.16977945 0.054062679 1.473
-0.1680861 0.054319598 1.48
-0.1662572 0.054539811 1.4860001
-0.16374688 0.054539811 1.4860001
-0.16123655 0.054539811 1.4860001
-0.15936711 0.054760024 1.4920001
-0.15758254 0.055016942 1.4990001
-0.1557743 0.055273861 1.506
-0.15384066 0.055494074 1.5120001
-0.15128642 0.055494074 1.5120001
-0.14942075 0.055750992 1.5190001
-0.14685468 0.055750992 1.5190001
-0.14428861 0.055750992 1.5190001
-0.14228234 0.055971202 1.5250001
-0.14034741 0.056228124 1.5320001
-0.13775937 0.056228124 1.5320001
-0.13517135 0.056228124 1.5320001
-0.13318911 0.056485042 1.539
-0.13058925 0.056485042 1.539
-0.1279894 0.056485042 1.539
-0.12538953 0.056485042 1.539
-0.12334818 0.05674196 1.5460001
-0.1207365 0.05674196 1.5460001
-0.11865966 0.056998871 1.5530001
-0.11603615 0.056998871 1.5530001
-0.11392385 0.05725579 1.5600001
-0.11128852 0.05725579 1.5600001
-0.10865317 0.05725579 1.5600001
-0.10601784 0.05725579 1.5600001
-0.10338251 0.05725579 1.5600001
-0.10119925 0.057512708 1.567
-0.0985521 0.057512708 1.567
-0.095904939 0.057512708 1.567
-0.093257785 0.057512708 1.567
-0.091015391 0.057769626 1.5740001
-0.088749357 0.058026537 1.5810001
-0.086078547 0.058026537 1.5810001
-0.083407737 0.058026537 1.5810001
-0.081145465 0.058320161 1.5890001
-0.078461148 0.058320161 1.5890001
-0.075776823 0.058320161 1.5890001
-0.073092498 0.058320161 1.5890001
-0.07040818 0.058320161 1.5890001
-0.067723855 0.058320161 1.5890001
-0.06503953 0.058320161 1.5890001
-0.062629901 0.058577079 1.5960001
-0.059933752 0.058577079 1.5960001
-0.057237606 0.058577079 1.5960001
-0.054541454 0.058577079 1.5960001
-0.051845308 0.058577079 1.5960001
-0.049149159 0.058577079 1.5960001
-0.04645301 0.058577079 1.5960001
-0.043756861 0.058577079 1.5960001
-0.041060716 0.058577079 1.5960001
-0.038364567 0.058577079 1.5960001
-0.035824858 0.058833998 1.603
-0.033116885 0.058833998 1.603
-0.030408913 0.058833998 1.603
-0.02770094 0.058833998 1.603
-0.024992969 0.058833998 1.603
-0.022396212 0.059127614 1.6110001
-0.019760212 0.059384532 1.618
-0.017026899 0.059384532 1.618
-0.014293587 0.059384532 1.618
-0.011560275 0.059384532 1.618
-0.0088269627 0.059384532 1.618
-0.0060936492 0.059384532 1.618
-0.0033769512 0.059678152 1.626
-0.00063012395 0.059678152 1.626
0.0021167034 0.059678152 1.626
0.0048635309 0.059678152 1.626
0.0076103583 0.059678152 1.626
0.010357185 0.059678152 1.626
0.013168485 0.059971772 1.6340001
0.015928827 0.059971772 1.6340001
0.018689169 0.059971772 1.6340001
0.02144951 0.059971772 1.6340001
0.024313567 0.060228687 1.641
0.027085735 0.060228687 1.641
0.03000346 0.060522307 1.649
0.032789141 0.060522307 1.649
0.035574824 0.060522307 1.649
0.038360506 0.060522307 1.649
0.041146189 0.060522307 1.649
0.044144999 0.060815927 1.6570001
0.046717551 0.060522307 1.649
-0.27210349 0.052753996 1.3740001
-0.26978236 0.052753996 1.3740001
-0.26746124 0.052753996 1.3740001
-0.26514012 0.052753996 1.3740001
-0.2616713 0.052523632 1.368
-0.25936031 0.052523632 1.368
-0.25704935 0.052523632 1.368
-0.25473836 0.052523632 1.368
-0.25242737 0.052523632 1.368
-0.25011638 0.052523632 1.368
-0.2478054 0.052523632 1.368
-0.24549443 0.052523632 1.368
-0.24318343 0.052523632 1.368
-0.24087246 0.052523632 1.368
-0.23856147 0.052523632 1.368
-0.23625049 0.052523632 1.368
-0.2339395 0.052523632 1.368
-0.23162852 0.052523632 1.368
-0.22931753 0.052523632 1.368
-0.22700655 0.052523632 1.368
-0.2256811 0.052753996 1.3740001
-0.22335997 0.052753996 1.3740001
-0.22103885 0.052753996 1.3740001
-0.22046874 0.05317634 1.3850001
-0.21812904 0.05317634 1.3850001
-0.21656837 0.053368308 1.3900001
-0.21422021 0.053368308 1.3900001
-0.21187206 0.053368308 1.3900001
-0.21042833 0.053598676 1.396
-0.20896433 0.05382904 1.4020001
-0.20659591 0.05382904 1.4020001
-0.20495583 0.054021016 1.4070001
-0.20257896 0.054021016 1.4070001
-0.20105584 0.054251384 1.4130001
-0.19866884 0.054251384 1.4130001
-0.19628184 0.054251384 1.4130001
-0.19471815 0.054481748 1.419
-0.19232102 0.054481748 1.419
-0.19072695 0.054712117 1.4250001
-0.1891126 0.054942481 1.4310001
-0.18747798 0.055172849 1.437
-0.18582308 0.055403218 1.4430001
-0.18414791 0.055633582 1.4490001
-0.1817001 0.055633582 1.4490001
-0.17999452 0.05586395 1.455
-0.17753658 0.05586395 1.455
-0.17580059 0.056094319 1.4610001
-0.1733325 0.056094319 1.4610001
-0.17156611 0.056324679 1.4670001
-0.16977945 0.056555048 1.473
-0.1680861 0.056823812 1.48
-0.16558591 0.056823812 1.48
-0.16374688 0.057054181 1.4860001
-0.16123655 0.057054181 1.4860001
-0.15936711 0.057284549 1.4920001
-0.15758254 0.057553302 1.4990001
-0.1557743 0.057822067 1.506
-0.15384066 0.058052436 1.5120001
-0.15128642 0.058052436 1.5120001
-0.14873217 0.058052436 1.5120001
-0.14685468 0.058321197 1.5190001
-0.14428861 0.058321197 1.5190001
-0.14228234 0.058551561 1.5250001
-0.14034741 0.058820322 1.5320001
-0.13775937 0.058820322 1.5320001
-0.13578896 0.059089087 1.539
-0.13318911 0.059089087 1.539
-0.13058925 0.059089087 1.539
-0.1279894 0.059089087 1.539
-0.12595986 0.059357848 1.5460001
-0.12334818 0.059357848 1.5460001
-0.12128317 0.059626605 1.5530001
-0.11865966 0.059626605 1.5530001
-0.11603615 0.059626605 1.5530001
-0.11392385 0.059895366 1.5600001
-0.11128852 0.059895366 1.5600001
-0.10865317 0.059895366 1.5600001
-0.10649357 0.060164131 1.567
-0.10384642 0.060164131 1.567
-0.10119925 0.060164131 1.567
-0.0985521 0.060164131 1.567
-0.095904939 0.060164131 1.567
-0.093257785 0.060164131 1.567
-0.091015391 0.060432892 1.5740001
-0.088749357 0.06070165 1.5810001
-0.086078547 0.06070165 1.5810001
-0.083407737 0.06070165 1.5810001
-0.080736928 0.06070165 1.5810001
-0.078066126 0.06070165 1.5810001
-0.075776823 0.061008807 1.5890001
-0.073092498 0.061008807 1.5890001
-0.07040818 0.061008807 1.5890001
-0.067723855 0.061008807 1.5890001
-0.06503953 0.061008807 1.5890001
-0.062629901 0.061277568 1.5960001
-0.059933752 0.061277568 1.5960001
-0.057237606 0.061277568 1.5960001
-0.054541454 0.061277568 1.5960001
-0.051845308 0.061277568 1.5960001
-0.049149159 0.061277568 1.5960001
-0.04645301 0.061277568 1.5960001
-0.043756861 0.061277568 1.5960001
-0.041060716 0.061277568 1.5960001
-0.038364567 0.061277568 1.5960001
-0.035824858 0.061546333 1.603
-0.033116885 0.061546333 1.603
-0.030408913 0.061546333 1.603
-0.02770094 0.061546333 1.603
-0.024992969 0.061546333 1.603
-0.022396212 0.061853483 1.6110001
-0.019674724 0.061853483 1.6110001
-0.017026899 0.062122248 1.618
-0.014293587 0.062122248 1.618
-0.011560275 0.062122248 1.618
-0.0088269627 0.062122248 1.618
-0.0060936492 0.062122248 1.618
-0.0033603364 0.062122248 1.618
-0.00063012395 0.062429406 1.626
0.0021167034 0.062429406 1.626
0.0048635309 0.062429406 1.626
0.0076103583 0.062429406 1.626
0.010357185 0.062429406 1.626
0.013104013 0.062429406 1.626
0.015928827 0.062736563 1.6340001
0.018689169 0.062736563 1.6340001
0.02144951 0.062736563 1.6340001
0.024313567 0.063005321 1.641
0.027217779 0.063312478 1.649
0.03000346 0.063312478 1.649
0.032948215 0.063619636 1.6570001
0.035574824 0.063312478 1.649
0.038546607 0.063619636 1.6570001
0.041345805 0.063619636 1.6570001
0.044144999 0.063619636 1.6570001
0.046717551 0.063312478 1.649
0.049263068 0.063005321 1.641
0.052035235 0.063005321 1.641
-0.27210349 0.055078857 1.3740001
-0.27076411 0.055279288 1.3790001
-0.26746124 0.055078857 1.3740001
-0.26514012 0.055078857 1.3740001
-0.2616713 0.054838337 1.368
-0.25936031 0.054838337 1.368
-0.25704935 0.054838337 1.368
-0.25473836 0.054838337 1.368
-0.25242737 0.054838337 1.368
-0.25011638 0.054838337 1.368
-0.2478054 0.054838337 1.368
-0.24459715 0.054637905 1.363
-0.24229462 0.054637905 1.363
-0.23999208 0.054637905 1.363
-0.23856147 0.054838337 1.368
-0.23625049 0.054838337 1.368
-0.23308447 0.054637905 1.363
-0.23162852 0.054838337 1.368
-0.22931753 0.054838337 1.368
-0.22700655 0.054838337 1.368
-0.22469556 0.054838337 1.368
-0.22335997 0.055078857 1.3740001
-0.22103885 0.055078857 1.3740001
-0.21951364 0.055279288 1.3790001
-0.21812904 0.055519804 1.3850001
-0.21578933 0.055519804 1.3850001
-0.21422021 0.05572024 1.3900001
-0.21187206 0.05572024 1.3900001
-0.21042833 0.05596076 1.396
-0.20807004 0.05596076 1.396
-0.20659591 0.056201279 1.4020001
-0.20422749 0.056201279 1.4020001
-0.20257896 0.056401715 1.4070001
-0.20020209 0.056401715 1.4070001
-0.19782522 0.056401715 1.4070001
-0.19628184 0.056642227 1.4130001
-0.19389482 0.056642227 1.4130001
-0.19232102 0.05688275 1.419
-0.18992388 0.05688275 1.419
-0.1891126 0.05736379 1.4310001
-0.18669519 0.05736379 1.4310001
-0.18505043 0.057604302 1.437
-0.18338539 0.057844825 1.4430001
-0.1817001 0.058085345 1.4490001
-0.17999452 0.058325864 1.455
-0.17753658 0.058325864 1.455
-0.17580059 0.058566384 1.4610001
-0.1733325 0.058566384 1.4610001
-0.17156611 0.0588069 1.4670001
-0.16977945 0.05904742 1.473
-0.16729109 0.05904742 1.473
-0.16558591 0.059328027 1.48
-0.16374688 0.059568547 1.4860001
-0.16123655 0.059568547 1.4860001
-0.15936711 0.059809066 1.4920001
-0.15758254 0.060089666 1.4990001
-0.1557743 0.060370274 1.506
-0.15323019 0.060370274 1.506
-0.15128642 0.060610794 1.5120001
-0.14873217 0.060610794 1.5120001
-0.14685468 0.060891401 1.5190001
-0.14428861 0.060891401 1.5190001
-0.14228234 0.061131917 1.5250001
-0.14034741 0.061412524 1.5320001
-0.13775937 0.061412524 1.5320001
-0.13517135 0.061412524 1.5320001
-0.13318911 0.061693132 1.539
-0.13058925 0.061693132 1.539
-0.1279894 0.061693132 1.539
-0.12595986 0.061973736 1.5460001
-0.12334818 0.061973736 1.5460001
-0.12128317 0.062254339 1.5530001
-0.11865966 0.062254339 1.5530001
-0.11655918 0.062534943 1.5600001
-0.11392385 0.062534943 1.5600001
-0.11128852 0.062534943 1.5600001
-0.10865317 0.062534943 1.5600001
-0.10649357 0.062815554 1.567
-0.10384642 0.062815554 1.567
-0.10119925 0.062815554 1.567
-0.0985521 0.062815554 1.567
-0.095904939 0.062815554 1.567
-0.093257785 0.062815554 1.567
-0.091015391 0.063096158 1.5740001
-0.088356413 0.063096158 1.5740001
-0.085697427 0.063096158 1.5740001
-0.083407737 0.063376762 1.5810001
-0.080736928 0.063376762 1.5810001
-0.078066126 0.063376762 1.5810001
-0.075395316 0.063376762 1.5810001
-0.073092498 0.063697457 1.5890001
-0.07040818 0.063697457 1.5890001
-0.067723855 0.063697457 1.5890001
-0.06503953 0.063697457 1.5890001
-0.062629901 0.063978061 1.5960001
-0.059933752 0.063978061 1.5960001
-0.057237606 0.063978061 1.5960001
-0.054541454 0.063978061 1.5960001
-0.051845308 0.063978061 1.5960001
-0.049149159 0.063978061 1.5960001
-0.04645301 0.063978061 1.5960001
-0.043756861 0.063978061 1.5960001
-0.041060716 0.063978061 1.5960001
-0.038364567 0.063978061 1.5960001
-0.035668418 0.063978061 1.5960001
-0.033116885 0.064258665 1.603
-0.030408913 0.064258665 1.603
-0.02770094 0.064258665 1.603
-0.024992969 0.064258665 1.603
-0.022284996 0.064258665 1.603
-0.019577023 0.064258665 1.603
-0.016953237 0.064579353 1.6110001
-0.014293587 0.064859964 1.618
-0.011560275 0.064859964 1.618
-0.0088269627 0.064859964 1.618
-0.0060936492 0.064859964 1.618
-0.0033603364 0.064859964 1.618
-0.00062702369 0.064859964 1.618
0.0021062891 0.064859964 1.618
0.0048396019 0.064859964 1.618
0.0076103583 0.065180659 1.626
0.010357185 0.065180659 1.626
0.013104013 0.065180659 1.626
0.015928827 0.065501347 1.6340001
0.018689169 0.065501347 1.6340001
0.0215414 0.065781951 1.641
0.024313567 0.065781951 1.641
0.027217779 0.066102646 1.649
0.030149018 0.066423342 1.6570001
0.032948215 0.066423342 1.6570001
0.035747413 0.066423342 1.6570001
0.038546607 0.066423342 1.6570001
0.041345805 0.066423342 1.6570001
0.044144999 0.066423342 1.6570001
0.046717551 0.066102646 1.649
0.049503233 0.066102646 1.649
0.052288912 0.066102646 1.649
-0.27210349 0.057403717 1.3740001
-0.26978236 0.057403717 1.3740001
-0.26629329 0.057153046 1.368
-0.2639823 0.057153046 1.368
-0.2616713 0.057153046 1.368
-0.25936031 0.057153046 1.368
-0.25704935 0.057153046 1.368
-0.25473836 0.057153046 1.368
-0.25242737 0.057153046 1.368
-0.25011638 0.057153046 1.368
-0.24689969 0.05694415 1.363
-0.24459715 0.05694415 1.363
-0.24229462 0.05694415 1.363
-0.23999208 0.05694415 1.363
-0.23768954 0.05694415 1.363
-0.23538701 0.05694415 1.363
-0.23308447 0.05694415 1.363
-0.23162852 0.057153046 1.368
-0.22931753 0.057153046 1.368
-0.22700655 0.057153046 1.368
-0.2256811 0.057403717 1.3740001
-0.22335997 0.057403717 1.3740001
-0.22103885 0.057403717 1.3740001
-0.21871772 0.057403717 1.3740001
-0.21718408 0.057612613 1.3790001
-0.21578933 0.057863276 1.3850001
-0.21344963 0.057863276 1.3850001
-0.21187206 0.058072172 1.3900001
-0.20952392 0.058072172 1.3900001
-0.20807004 0.058322843 1.396
-0.20571177 0.058322843 1.396
-0.20422749 0.058573518 1.4020001
-0.20185906 0.058573518 1.4020001
-0.20020209 0.05878241 1.4070001
-0.19782522 0.05878241 1.4070001
-0.19628184 0.059033077 1.4130001
-0.19389482 0.059033077 1.4130001
-0.19150782 0.059033077 1.4130001
-0.18992388 0.059283748 1.419
-0.1891126 0.059785094 1.4310001
-0.18669519 0.059785094 1.4310001
-0.18505043 0.060035761 1.437
-0.18338539 0.060286433 1.4430001
-0.1817001 0.060537107 1.4490001
-0.17999452 0.060787778 1.455
-0.17753658 0.060787778 1.455
-0.17507862 0.060787778 1.455
-0.1733325 0.061038449 1.4610001
-0.17156611 0.061289117 1.4670001
-0.16908789 0.061289117 1.4670001
-0.16729109 0.061539788 1.473
-0.16558591 0.061832242 1.48
-0.16374688 0.062082913 1.4860001
-0.16123655 0.062082913 1.4860001
-0.15936711 0.062333588 1.4920001
-0.15758254 0.062626034 1.4990001
-0.1557743 0.062918484 1.506
-0.15323019 0.062918484 1.506
-0.15128642 0.063169152 1.5120001
-0.14873217 0.063169152 1.5120001
-0.14617793 0.063169152 1.5120001
-0.14362368 0.063169152 1.5120001
-0.14106944 0.063169152 1.5120001
-0.14034741 0.064004727 1.5320001
-0.13775937 0.064004727 1.5320001
-0.13517135 0.064004727 1.5320001
-0.13318911 0.064297177 1.539
-0.13058925 0.064297177 1.539
-0.1279894 0.064297177 1.539
-0.12538953 0.064297177 1.539
-0.12334818 0.064589627 1.5460001
-0.12128317 0.06488207 1.5530001
-0.11865966 0.06488207 1.5530001
-0.11603615 0.06488207 1.5530001
-0.11392385 0.06517452 1.5600001
-0.11128852 0.06517452 1.5600001
-0.10865317 0.06517452 1.5600001
-0.10601784 0.06517452 1.5600001
-0.10338251 0.06517452 1.5600001
-0.10119925 0.065466978 1.567
-0.0985521 0.065466978 1.567
-0.095904939 0.065466978 1.567
-0.093257785 0.065466978 1.567
-0.091015391 0.065759428 1.5740001
-0.088749357 0.066051871 1.5810001
-0.086078547 0.066051871 1.5810001
-0.083407737 0.066051871 1.5810001
-0.080736928 0.066051871 1.5810001
-0.078066126 0.066051871 1.5810001
-0.075776823 0.066386104 1.5890001
-0.073092498 0.066386104 1.5890001
-0.07040818 0.066386104 1.5890001
-0.067723855 0.066386104 1.5890001
-0.06503953 0.066386104 1.5890001
-0.062355209 0.066386104 1.5890001
-0.059933752 0.066678554 1.5960001
-0.057237606 0.066678554 1.5960001
-0.054541454 0.066678554 1.5960001
-0.051845308 0.066678554 1.5960001
-0.049149159 0.066678554 1.5960001
-0.04645301 0.066678554 1.5960001
-0.043756861 0.066678554 1.5960001
-0.041060716 0.066678554 1.5960001
-0.038364567 0.066678554 1.5960001
-0.035668418 0.066678554 1.5960001
-0.033116885 0.066971004 1.603
-0.030408913 0.066971004 1.603
-0.02770094 0.066971004 1.603
-0.024992969 0.066971004 1.603
-0.022284996 0.066971004 1.603
-0.019577023 0.066971004 1.603
-0.016953237 0.06730523 1.6110001
-0.014231749 0.06730523 1.6110001
-0.011560275 0.06759768 1.618
-0.0087887738 0.06730523 1.6110001
-0.0060936492 0.06759768 1.618
-0.0033603364 0.06759768 1.618
-0.00062702369 0.06759768 1.618
0.0021062891 0.06759768 1.618
0.0048396019 0.06759768 1.618
0.0076103583 0.067931905 1.626
0.010357185 0.067931905 1.626
0.013104013 0.067931905 1.626
0.015928827 0.068266138 1.6340001
0.018689169 0.068266138 1.6340001
0.02144951 0.068266138 1.6340001
0.024313567 0.068558581 1.641
0.027217779 0.068892814 1.649
0.030149018 0.069227047 1.6570001
0.032948215 0.069227047 1.6570001
0.035747413 0.069227047 1.6570001
0.038546607 0.069227047 1.6570001
0.041345805 0.069227047 1.6570001
0.044144999 0.069227047 1.6570001
0.046944197 0.069227047 1.6570001
0.049503233 0.068892814 1.649
-0.27210349 0.059728578 1.3740001
-0.26978236 0.059728578 1.3740001
-0.26746124 0.059728578 1.3740001
-0.2639823 0.059467752 1.368
-0.2616713 0.059467752 1.368
-0.25936031 0.059467752 1.368
-0.25704935 0.059467752 1.368
-0.25473836 0.059467752 1.368
-0.25242737 0.059467752 1.368
-0.24920224 0.059250396 1.363
-0.24689969 0.059250396 1.363
-0.24459715 0.059250396 1.363
-0.24229462 0.059250396 1.363
-0.23999208 0.059250396 1.363
-0.23768954 0.059250396 1.363
-0.23538701 0.059250396 1.363
-0.23308447 0.059250396 1.363
-0.23162852 0.059467752 1.368
-0.22931753 0.059467752 1.368
-0.22700655 0.059467752 1.368
-0.22469556 0.059467752 1.368
-0.22335997 0.059728578 1.3740001
-0.22103885 0.059728578 1.3740001
-0.21951364 0.05994593 1.3790001
-0.21718408 0.05994593 1.3790001
-0.21485451 0.05994593 1.3790001
-0.21344963 0.060206749 1.3850001
-0.21110992 0.060206749 1.3850001
-0.20952392 0.060424104 1.3900001
-0.20717576 0.060424104 1.3900001
-0.20571177 0.060684927 1.396
-0.20335348 0.060684927 1.396
-0.20185906 0.060945753 1.4020001
-0.20020209 0.061163105 1.4070001
-0.19782522 0.061163105 1.4070001
-0.19544837 0.061163105 1.4070001
-0.1930715 0.061163105 1.4070001
-0.19150782 0.061423924 1.4130001
-0.18912081 0.061423924 1.4130001
-0.18831967 0.061945572 1.4250001
-0.18669519 0.062206399 1.4310001
-0.18505043 0.062467217 1.437
-0.18338539 0.06272804 1.4430001
-0.1817001 0.06298887 1.4490001
-0.17999452 0.063249692 1.455
-0.17753658 0.063249692 1.455
-0.17507862 0.063249692 1.455
-0.1733325 0.063510515 1.4610001
-0.1708644 0.063510515 1.4610001
-0.16908789 0.063771337 1.4670001
-0.16729109 0.06403216 1.473
-0.16558591 0.064336456 1.48
-0.16374688 0.064597279 1.4860001
-0.16123655 0.064597279 1.4860001
-0.15936711 0.064858109 1.4920001
-0.15684666 0.064858109 1.4920001
-0.15505025 0.065162398 1.4990001
-0.15323019 0.065466687 1.506
-0.15068607 0.065466687 1.506
-0.14873217 0.065727517 1.5120001
-0.14617793 0.065727517 1.5120001
-0.14428861 0.066031814 1.5190001
-0.14172255 0.066031814 1.5190001
-0.13970613 0.066292629 1.5250001
-0.13775937 0.066596925 1.5320001
-0.13517135 0.066596925 1.5320001
-0.13258332 0.066596925 1.5320001
-0.13058925 0.066901222 1.539
-0.1279894 0.066901222 1.539
-0.12538953 0.066901222 1.539
-0.12334818 0.067205518 1.5460001
-0.1207365 0.067205518 1.5460001
-0.11865966 0.067509808 1.5530001
-0.11603615 0.067509808 1.5530001
-0.11392385 0.067814104 1.5600001
-0.11128852 0.067814104 1.5600001
-0.10865317 0.067814104 1.5600001
-0.10601784 0.067814104 1.5600001
-0.10338251 0.067814104 1.5600001
-0.10119925 0.068118393 1.567
-0.0985521 0.068118393 1.567
-0.095904939 0.068118393 1.567
-0.093257785 0.068118393 1.567
-0.091015391 0.06842269 1.5740001
-0.088356413 0.06842269 1.5740001
-0.085697427 0.06842269 1.5740001
-0.083038442 0.06842269 1.5740001
-0.080736928 0.068726979 1.5810001
-0.078066126 0.068726979 1.5810001
-0.075395316 0.068726979 1.5810001
-0.072724506 0.068726979 1.5810001
-0.070053697 0.068726979 1.5810001
-0.067723855 0.06907475 1.5890001
-0.06503953 0.06907475 1.5890001
-0.062355209 0.06907475 1.5890001
-0.059670888 0.06907475 1.5890001
-0.057237606 0.069379047 1.5960001
-0.054541454 0.069379047 1.5960001
-0.051845308 0.069379047 1.5960001
-0.049149159 0.069379047 1.5960001
-0.04645301 0.069379047 1.5960001
-0.043756861 0.069379047 1.5960001
-0.041060716 0.069379047 1.5960001
-0.038364567 0.069379047 1.5960001
-0.035668418 0.069379047 1.5960001
-0.033116885 0.069683336 1.603
-0.030408913 0.069683336 1.603
-0.02770094 0.069683336 1.603
-0.024992969 0.069683336 1.603
-0.022284996 0.069683336 1.603
-0.019577023 0.069683336 1.603
-0.016953237 0.070031099 1.6110001
-0.014231749 0.070031099 1.6110001
-0.011510261 0.070031099 1.6110001
-0.0087887738 0.070031099 1.6110001
-0.0060672862 0.070031099 1.6110001
-0.0033603364 0.070335396 1.618
-0.00062702369 0.070335396 1.618
0.0021062891 0.070335396 1.618
0.0048396019 0.070335396 1.618
0.0076103583 0.070683159 1.626
0.010357185 0.070683159 1.626
0.013104013 0.070683159 1.626
0.015928827 0.07103093 1.6340001
0.018689169 0.07103093 1.6340001
0.0215414 0.071335219 1.641
0.024432098 0.071682982 1.649
0.027349822 0.072030753 1.6570001
0.030149018 0.072030753 1.6570001
0.032948215 0.072030753 1.6570001
0.035747413 0.072030753 1.6570001
0.038546607 0.072030753 1.6570001
0.041345805 0.072030753 1.6570001
0.044144999 0.072030753 1.6570001
0.046944197 0.072030753 1.6570001
0.049503233 0.071682982 1.649
0.05254259 0.072030753 1.6570001
-0.27322623 0.061782457 1.368
-0.27210349 0.062053435 1.3740001
-0.26978236 0.062053435 1.3740001
-0.26629329 0.061782457 1.368
-0.2639823 0.061782457 1.368
-0.26071492 0.061556645 1.363
-0.25841239 0.061556645 1.363
-0.25610983 0.061556645 1.363
-0.25380731 0.061556645 1.363
-0.25150478 0.061556645 1.363
-0.24920224 0.061556645 1.363
-0.24689969 0.061556645 1.363
-0.24459715 0.061556645 1.363
-0.24229462 0.061556645 1.363
-0.23999208 0.061556645 1.363
-0.23768954 0.061556645 1.363
-0.23538701 0.061556645 1.363
-0.2339395 0.061782457 1.368
-0.23162852 0.061782457 1.368
-0.22931753 0.061782457 1.368
-0.22800222 0.062053435 1.3740001
-0.2256811 0.062053435 1.3740001
-0.22335997 0.062053435 1.3740001
-0.22103885 0.062053435 1.3740001
-0.21951364 0.06227925 1.3790001
-0.21718408 0.06227925 1.3790001
-0.21485451 0.06227925 1.3790001
-0.21344963 0.062550217 1.3850001
-0.21110992 0.062550217 1.3850001
-0.20952392 0.062776037 1.3900001
-0.20717576 0.062776037 1.3900001
-0.20571177 0.063047014 1.396
-0.20335348 0.063047014 1.396
-0.20185906 0.063317992 1.4020001
-0.19949064 0.063317992 1.4020001
-0.19782522 0.063543804 1.4070001
-0.19544837 0.063543804 1.4070001
-0.1930715 0.063543804 1.4070001
-0.19150782 0.063814774 1.4130001
-0.18912081 0.063814774 1.4130001
-0.18831967 0.064356729 1.4250001
-0.18669519 0.064627707 1.4310001
-0.18505043 0.064898677 1.437
-0.18338539 0.065169655 1.4430001
-0.1817001 0.065440632 1.4490001
-0.17999452 0.065711603 1.455
-0.17753658 0.065711603 1.455
-0.17507862 0.065711603 1.455
-0.1733325 0.06598258 1.4610001
-0.1708644 0.06598258 1.4610001
-0.16908789 0.06625355 1.4670001
-0.16729109 0.066524528 1.473
-0.16558591 0.066840671 1.48
-0.16374688 0.067111649 1.4860001
-0.16123655 0.067111649 1.4860001
-0.15872623 0.067111649 1.4860001
-0.15684666 0.067382626 1.4920001
-0.15505025 0.067698754 1.4990001
-0.15323019 0.068014897 1.506
-0.15068607 0.068014897 1.506
-0.14873217 0.068285875 1.5120001
-0.14617793 0.068285875 1.5120001
-0.14428861 0.068602018 1.5190001
-0.14172255 0.068602018 1.5190001
-0.13970613 0.068872988 1.5250001
-0.13775937 0.069189124 1.5320001
-0.13517135 0.069189124 1.5320001
-0.13258332 0.069189124 1.5320001
-0.12999529 0.069189124 1.5320001
-0.1279894 0.069505267 1.539
-0.12538953 0.069505267 1.539
-0.12278968 0.069505267 1.539
-0.12018982 0.069505267 1.539
-0.11812482 0.069821402 1.5460001
-0.11603615 0.070137538 1.5530001
-0.11341265 0.070137538 1.5530001
-0.11128852 0.070453681 1.5600001
-0.10865317 0.070453681 1.5600001
-0.10601784 0.070453681 1.5600001
-0.10338251 0.070453681 1.5600001
-0.10119925 0.070769817 1.567
-0.0985521 0.070769817 1.567
-0.095904939 0.070769817 1.567
-0.093257785 0.070769817 1.567
-0.090610623 0.070769817 1.567
-0.088356413 0.07108596 1.5740001
-0.085697427 0.07108596 1.5740001
-0.083038442 0.07108596 1.5740001
-0.080379464 0.07108596 1.5740001
-0.078066126 0.071402095 1.5810001
-0.075395316 0.071402095 1.5810001
-0.072724506 0.071402095 1.5810001
-0.070053697 0.071402095 1.5810001
-0.067382887 0.071402095 1.5810001
-0.06503953 0.071763396 1.5890001
-0.062355209 0.071763396 1.5890001
-0.059670888 0.071763396 1.5890001
-0.057237606 0.072079532 1.5960001
-0.054541454 0.072079532 1.5960001
-0.051845308 0.072079532 1.5960001
-0.049149159 0.072079532 1.5960001
-0.04645301 0.072079532 1.5960001
-0.043756861 0.072079532 1.5960001
-0.041060716 0.072079532 1.5960001
-0.038364567 0.072079532 1.5960001
-0.035668418 0.072079532 1.5960001
-0.032972272 0.072079532 1.5960001
-0.030408913 0.072395675 1.603
-0.02770094 0.072395675 1.603
-0.024883827 0.072079532 1.5960001
-0.022284996 0.072395675 1.603
-0.019577023 0.072395675 1.603
-0.01686905 0.072395675 1.603
-0.014231749 0.072756968 1.6110001
-0.011510261 0.072756968 1.6110001
-0.0087887738 0.072756968 1.6110001
-0.0060672862 0.072756968 1.6110001
-0.0033457987 0.072756968 1.6110001
-0.00062702369 0.073073111 1.618
0.0021062891 0.073073111 1.618
0.0048396019 0.073073111 1.618
0.0076103583 0.073434412 1.626
0.010357185 0.073434412 1.626
0.013104013 0.073434412 1.626
0.015928827 0.073795713 1.6340001
0.018689169 0.073795713 1.6340001
0.0215414 0.074111849 1.641
0.024432098 0.07447315 1.649
0.027349822 0.074834459 1.6570001
0.030149018 0.074834459 1.6570001
0.032948215 0.074834459 1.6570001
0.035747413 0.074834459 1.6570001
0.038546607 0.074834459 1.6570001
0.041345805 0.074834459 1.6570001
0.044144999 0.074834459 1.6570001
0.046944197 0.074834459 1.6570001
0.049743392 0.074834459 1.6570001
0.05254259 0.074834459 1.6570001
-0.27453014 0.06386289 1.363
-0.27222762 0.06386289 1.363
-0.27091524 0.064097166 1.368
-0.26860425 0.064097166 1.368
-0.26629329 0.064097166 1.368
-0.26301745 0.06386289 1.363
-0.26071492 0.06386289 1.363
-0.25746444 0.063628614 1.358
-0.25610983 0.06386289 1.363
-0.25380731 0.06386289 1.363
-0.25150478 0.06386289 1.363
-0.24920224 0.06386289 1.363
-0.24689969 0.06386289 1.363
-0.24459715 0.06386289 1.363
-0.24229462 0.06386289 1.363
-0.23999208 0.06386289 1.363
-0.23768954 0.06386289 1.363
-0.23538701 0.06386289 1.363
-0.23308447 0.06386289 1.363
-0.23162852 0.064097166 1.368
-0.22931753 0.064097166 1.368
-0.22800222 0.064378291 1.3740001
-0.2256811 0.064378291 1.3740001
-0.22335997 0.064378291 1.3740001
-0.22184321 0.064612567 1.3790001
-0.21951364 0.064612567 1.3790001
-0.21718408 0.064612567 1.3790001
-0.21578933 0.064893693 1.3850001
-0.21344963 0.064893693 1.3850001
-0.21110992 0.064893693 1.3850001
-0.20952392 0.065127969 1.3900001
-0.20717576 0.065127969 1.3900001
-0.20482762 0.065127969 1.3900001
-0.20247947 0.065127969 1.3900001
-0.20099519 0.065409094 1.396
-0.19949064 0.065690227 1.4020001
-0.19712222 0.065690227 1.4020001
-0.19544837 0.065924495 1.4070001
-0.1930715 0.065924495 1.4070001
-0.19150782 0.066205621 1.4130001
-0.18992388 0.066486754 1.419
-0.18831967 0.066767879 1.4250001
-0.18669519 0.067049012 1.4310001
-0.18505043 0.067330129 1.437
-0.18338539 0.067611262 1.4430001
-0.1817001 0.067892388 1.4490001
-0.17999452 0.06817352 1.455
-0.17753658 0.06817352 1.455
-0.17507862 0.06817352 1.455
-0.1733325 0.068454646 1.4610001
-0.1708644 0.068454646 1.4610001
-0.16908789 0.068735771 1.4670001
-0.16729109 0.069016904 1.473
-0.16558591 0.069344886 1.48
-0.16374688 0.069626011 1.4860001
-0.16123655 0.069626011 1.4860001
-0.15936711 0.069907144 1.4920001
-0.15684666 0.069907144 1.4920001
-0.1543262 0.069907144 1.4920001
-0.15251797 0.070235118 1.4990001
-0.15068607 0.070563108 1.506
-0.14814197 0.070563108 1.506
-0.14617793 0.070844233 1.5120001
-0.14362368 0.070844233 1.5120001
-0.14172255 0.071172222 1.5190001
-0.13970613 0.07145334 1.5250001
-0.13775937 0.071781322 1.5320001
-0.13517135 0.071781322 1.5320001
-0.13258332 0.071781322 1.5320001
-0.12999529 0.071781322 1.5320001
-0.1279894 0.072109312 1.539
-0.12538953 0.072109312 1.539
-0.12278968 0.072109312 1.539
-0.12018982 0.072109312 1.539
-0.11812482 0.072437294 1.5460001
-0.11603615 0.072765268 1.5530001
-0.11341265 0.072765268 1.5530001
-0.11078914 0.072765268 1.5530001
-0.10865317 0.073093258 1.5600001
-0.10601784 0.073093258 1.5600001
-0.10338251 0.073093258 1.5600001
-0.10074718 0.073093258 1.5600001
-0.0985521 0.07342124 1.567
-0.095904939 0.07342124 1.567
-0.093257785 0.07342124 1.567
-0.090610623 0.07342124 1.567
-0.087963469 0.07342124 1.567
-0.085316308 0.07342124 1.567
-0.082669154 0.07342124 1.567
-0.080379464 0.073749222 1.5740001
-0.077720478 0.073749222 1.5740001
-0.075395316 0.074077204 1.5810001
-0.072724506 0.074077204 1.5810001
-0.070053697 0.074077204 1.5810001
-0.067382887 0.074077204 1.5810001
-0.06503953 0.074452043 1.5890001
-0.062355209 0.074452043 1.5890001
-0.059670888 0.074452043 1.5890001
-0.057237606 0.074780025 1.5960001
-0.054541454 0.074780025 1.5960001
-0.051845308 0.074780025 1.5960001
-0.049149159 0.074780025 1.5960001
-0.04645301 0.074780025 1.5960001
-0.043756861 0.074780025 1.5960001
-0.041060716 0.074780025 1.5960001
-0.038364567 0.074780025 1.5960001
-0.035668418 0.074780025 1.5960001
-0.032972272 0.074780025 1.5960001
-0.030276123 0.074780025 1.5960001
-0.027579976 0.074780025 1.5960001
-0.024883827 0.074780025 1.5960001
-0.02218768 0.074780025 1.5960001
-0.019491533 0.074780025 1.5960001
-0.016795384 0.074780025 1.5960001
-0.014161076 0.075108007 1.603
-0.011510261 0.075482845 1.6110001
-0.0087451292 0.075108007 1.603
-0.0060672862 0.075482845 1.6110001
-0.0033457987 0.075482845 1.6110001
-0.00062431098 0.075482845 1.6110001
0.0021062891 0.075810827 1.618
0.0048396019 0.075810827 1.618
0.0076103583 0.076185666 1.626
0.010357185 0.076185666 1.626
0.013104013 0.076185666 1.626
0.015928827 0.076560505 1.6340001
0.018689169 0.076560505 1.6340001
0.0215414 0.076888479 1.641
0.024432098 0.077263318 1.649
0.027217779 0.077263318 1.649
0.030149018 0.077638157 1.6570001
0.032948215 0.077638157 1.6570001
0.035747413 0.077638157 1.6570001
0.038546607 0.077638157 1.6570001
0.041345805 0.077638157 1.6570001
0.044144999 0.077638157 1.6570001
0.046944197 0.077638157 1.6570001
0.049743392 0.077638157 1.6570001
0.05254259 0.077638157 1.6570001
-0.27453014 0.066169135 1.363
-0.27222762 0.066169135 1.363
-0.26992506 0.066169135 1.363
-0.26762253 0.066169135 1.363
-0.26532 0.066169135 1.363
-0.26301745 0.066169135 1.363
-0.25975853 0.065926403 1.358
-0.25746444 0.065926403 1.358
-0.25517035 0.065926403 1.358
-0.25287625 0.065926403 1.358
-0.25058216 0.065926403 1.358
-0.24828807 0.065926403 1.358
-0.24689969 0.066169135 1.363
-0.24369989 0.065926403 1.358
-0.24229462 0.066169135 1.363
-0.23999208 0.066169135 1.363
-0.23681761 0.065926403 1.358
-0.23538701 0.066169135 1.363
-0.23308447 0.066169135 1.363
-0.23162852 0.066411868 1.368
-0.22931753 0.066411868 1.368
-0.22700655 0.066411868 1.368
-0.2256811 0.066703156 1.3740001
-0.22335997 0.066703156 1.3740001
-0.22184321 0.066945888 1.3790001
-0.21951364 0.066945888 1.3790001
-0.21812904 0.067237161 1.3850001
-0.21578933 0.067237161 1.3850001
-0.21344963 0.067237161 1.3850001
-0.21110992 0.067237161 1.3850001
-0.20952392 0.067479894 1.3900001
-0.20717576 0.067479894 1.3900001
-0.20482762 0.067479894 1.3900001
-0.20247947 0.067479894 1.3900001
-0.20099519 0.067771181 1.396
-0.1986369 0.067771181 1.396
-0.19712222 0.068062462 1.4020001
-0.19544837 0.068305194 1.4070001
-0.1930715 0.068305194 1.4070001
-0.19150782 0.068596467 1.4130001
-0.18992388 0.068887748 1.419
-0.18831967 0.069179036 1.4250001
-0.18669519 0.069470316 1.4310001
-0.18505043 0.069761589 1.437
-0.18262288 0.069761589 1.437
-0.18094771 0.07005287 1.4430001
-0.17925227 0.07034415 1.4490001
-0.17753658 0.070635431 1.455
-0.17507862 0.070635431 1.455
-0.1733325 0.070926718 1.4610001
-0.1708644 0.070926718 1.4610001
-0.16908789 0.071217991 1.4670001
-0.16729109 0.071509272 1.473
-0.16558591 0.0718491 1.48
-0.16374688 0.072140381 1.4860001
-0.16123655 0.072140381 1.4860001
-0.15872623 0.072140381 1.4860001
-0.15684666 0.072431661 1.4920001
-0.1543262 0.072431661 1.4920001
-0.15251797 0.072771482 1.4990001
-0.14998569 0.072771482 1.4990001
-0.14814197 0.073111311 1.506
-0.14559786 0.073111311 1.506
-0.14362368 0.073402599 1.5120001
-0.14172255 0.073742427 1.5190001
-0.13915648 0.073742427 1.5190001
-0.13775937 0.074373528 1.5320001
-0.13517135 0.074373528 1.5320001
-0.13258332 0.074373528 1.5320001
-0.12999529 0.074373528 1.5320001
-0.1279894 0.074713357 1.539
-0.12538953 0.074713357 1.539
-0.12278968 0.074713357 1.539
-0.12018982 0.074713357 1.539
-0.11758997 0.074713357 1.539
-0.11551314 0.075053185 1.5460001
-0.11341265 0.075393006 1.5530001
-0.11078914 0.075393006 1.5530001
-0.10865317 0.075732835 1.5600001
-0.10601784 0.075732835 1.5600001
-0.10338251 0.075732835 1.5600001
-0.10119925 0.076072663 1.567
-0.0985521 0.076072663 1.567
-0.095904939 0.076072663 1.567
-0.093257785 0.076072663 1.567
-0.090610623 0.076072663 1.567
-0.087963469 0.076072663 1.567
-0.085316308 0.076072663 1.567
-0.082669154 0.076072663 1.567
-0.080379464 0.076412492 1.5740001
-0.078066126 0.076752312 1.5810001
-0.075395316 0.076752312 1.5810001
-0.072724506 0.076752312 1.5810001
-0.070053697 0.076752312 1.5810001
-0.067382887 0.076752312 1.5810001
-0.064712085 0.076752312 1.5810001
-0.062355209 0.077140689 1.5890001
-0.059670888 0.077140689 1.5890001
-0.056986563 0.077140689 1.5890001
-0.054302238 0.077140689 1.5890001
-0.051845308 0.077480517 1.5960001
-0.049149159 0.077480517 1.5960001
-0.04645301 0.077480517 1.5960001
-0.043756861 0.077480517 1.5960001
-0.041060716 0.077480517 1.5960001
-0.038364567 0.077480517 1.5960001
-0.035668418 0.077480517 1.5960001
-0.032972272 0.077480517 1.5960001
-0.030276123 0.077480517 1.5960001
-0.027579976 0.077480517 1.5960001
-0.024883827 0.077480517 1.5960001
-0.02218768 0.077480517 1.5960001
-0.019491533 0.077480517 1.5960001
-0.016795384 0.077480517 1.5960001
-0.014161076 0.077820346 1.603
-0.011453102 0.077820346 1.603
-0.0087451292 0.077820346 1.603
-0.006037157 0.077820346 1.603
-0.0033457987 0.078208715 1.6110001
-0.00062431098 0.078208715 1.6110001
0.0021062891 0.078548543 1.618
0.0048396019 0.078548543 1.618
0.0076103583 0.07893692 1.626
0.010357185 0.07893692 1.626
0.013168485 0.079325296 1.6340001
0.015928827 0.079325296 1.6340001
0.018769233 0.079665117 1.641
0.0215414 0.079665117 1.641
0.024432098 0.080053493 1.649
0.027217779 0.080053493 1.649
0.030149018 0.080441862 1.6570001
0.032948215 0.080441862 1.6570001
0.035747413 0.080441862 1.6570001
0.038546607 0.080441862 1.6570001
0.041345805 0.080441862 1.6570001
0.044144999 0.080441862 1.6570001
0.046944197 0.080441862 1.6570001
0.049743392 0.080441862 1.6570001
0.052796267 0.080830231 1.6650001
0.25387836 0.075393006 1.5530001
0.2553457 0.075053185 1.5460001
0.2579574 0.075053185 1.5460001
0.26056907 0.075053185 1.5460001
0.26318076 0.075053185 1.5460001
-0.27453014 0.068475381 1.363
-0.27222762 0.068475381 1.363
-0.26992506 0.068475381 1.363
-0.26762253 0.068475381 1.363
-0.26532 0.068475381 1.363
-0.26205263 0.068224192 1.358
-0.25975853 0.068224192 1.358
-0.25746444 0.068224192 1.358
-0.25517035 0.068224192 1.358
-0.25287625 0.068224192 1.358
-0.25058216 0.068224192 1.358
-0.24828807 0.068224192 1.358
-0.24599399 0.068224192 1.358
-0.24369989 0.068224192 1.358
-0.2414058 0.068224192 1.358
-0.23911171 0.068224192 1.358
-0.23681761 0.068224192 1.358
-0.23452353 0.068224192 1.358
-0.23308447 0.068475381 1.363
-0.23078193 0.068475381 1.363
-0.22931753 0.068726577 1.368
-0.22700655 0.068726577 1.368
-0.2256811 0.069028012 1.3740001
-0.22335997 0.069028012 1.3740001
-0.22184321 0.069279209 1.3790001
-0.21951364 0.069279209 1.3790001
-0.21812904 0.069580637 1.3850001
-0.21578933 0.069580637 1.3850001
-0.21344963 0.069580637 1.3850001
-0.21110992 0.069580637 1.3850001
-0.20952392 0.069831826 1.3900001
-0.20717576 0.069831826 1.3900001
-0.20482762 0.069831826 1.3900001
-0.20247947 0.069831826 1.3900001
-0.20099519 0.070133261 1.396
-0.1986369 0.070133261 1.396
-0.19712222 0.070434697 1.4020001
-0.1947538 0.070434697 1.4020001
-0.1930715 0.070685893 1.4070001
-0.19069463 0.070685893 1.4070001
-0.18992388 0.07128875 1.419
-0.18831967 0.071590185 1.4250001
-0.1859124 0.071590185 1.4250001
-0.18427777 0.071891621 1.4310001
-0.18262288 0.072193049 1.437
-0.18094771 0.072494477 1.4430001
-0.17851003 0.072494477 1.4430001
-0.17680445 0.072795913 1.4490001
-0.17507862 0.073097348 1.455
-0.1733325 0.073398784 1.4610001
-0.1708644 0.073398784 1.4610001
-0.16977945 0.07400164 1.473
-0.16729109 0.07400164 1.473
-0.16558591 0.074353315 1.48
-0.16374688 0.074654751 1.4860001
-0.16123655 0.074654751 1.4860001
-0.15872623 0.074654751 1.4860001
-0.15684666 0.074956179 1.4920001
-0.1543262 0.074956179 1.4920001
-0.15251797 0.075307846 1.4990001
