# .PCD v0.7 - Point Cloud Data file format
VERSION 0.7
FIELDS x y z
SIZE 4 4 4
TYPE F F F
COUNT 1 1 1
WIDTH 1500
HEIGHT 1
VIEWPOINT 0 0 0 1 0 0 0
POINTS 1500
DATA ascii
-0.20545402 0.27834383 1.363
-0.20315148 0.27834383 1.363
-0.10846441 0.32592571 1.5960001
-0.10576826 0.32592571 1.5960001
-0.10307212 0.32592571 1.5960001
-0.10037597 0.32592571 1.5960001
-0.097679824 0.32592571 1.5960001
-0.095400266 0.32735521 1.603
-0.092692293 0.32735521 1.603
-0.08998432 0.32735521 1.603
-0.087276354 0.32735521 1.603
-0.084568381 0.32735521 1.603
-0.081860408 0.32735521 1.603
-0.079152435 0.32735521 1.603
-0.076444462 0.32735521 1.603
-0.07341449 0.32592571 1.5960001
-0.070718348 0.32592571 1.5960001
-0.068320543 0.32735521 1.603
-0.065612569 0.32735521 1.603
-0.062904596 0.32735521 1.603
-0.059933752 0.32592571 1.5960001
-0.057488646 0.32735521 1.603
-0.05478067 0.32735521 1.603
-0.052072696 0.32735521 1.603
-0.049364723 0.32735521 1.603
-0.04665675 0.32735521 1.603
-0.043948777 0.32735521 1.603
-0.041240804 0.32735521 1.603
-0.038532831 0.32735521 1.603
-0.035668418 0.32592571 1.5960001
-0.032972272 0.32592571 1.5960001
-0.030276123 0.32592571 1.5960001
-0.027579976 0.32592571 1.5960001
-0.024883827 0.32592571 1.5960001
-0.02218768 0.32592571 1.5960001
-0.019491533 0.32592571 1.5960001
-0.016795384 0.32592571 1.5960001
-0.014099237 0.32592571 1.5960001
-0.011453102 0.32735521 1.603
-0.0087451292 0.32735521 1.603
-0.006037157 0.32735521 1.603
-0.0033291839 0.32735521 1.603
-0.00062121073 0.32735521 1.603
0.0020867623 0.32735521 1.603
0.0047947355 0.32735521 1.603
0.0075401519 0.32898891 1.6110001
0.010210682 0.32735521 1.603
0.012918655 0.32735521 1.603
0.015626628 0.32735521 1.603
0.018334601 0.32735521 1.603
0.020950686 0.32592571 1.5960001
0.023646833 0.32592571 1.5960001
0.026227441 0.32449618 1.5890001
0.028911764 0.32449618 1.5890001
0.031596087 0.32449618 1.5890001
0.034431424 0.32592571 1.5960001
0.037127573 0.32592571 1.5960001
0.039998386 0.32735521 1.603
0.042706359 0.32735521 1.603
0.045640979 0.32898891 1.6110001
0.048362464 0.32898891 1.6110001
0.051083952 0.32898891 1.6110001
0.053805441 0.32898891 1.6110001
0.056246221 0.32735521 1.603
0.058954194 0.32735521 1.603
0.061662167 0.32735521 1.603
0.064089045 0.32592571 1.5960001
0.067078114 0.32735521 1.603
0.069786087 0.32735521 1.603
0.07249406 0.32735521 1.603
0.075202033 0.32735521 1.603
0.077910006 0.32735521 1.603
0.080617979 0.32735521 1.603
0.083325952 0.32735521 1.603
0.086033925 0.32735521 1.603
0.088741899 0.32735521 1.603
0.091449872 0.32735521 1.603
0.094157845 0.32735521 1.603
0.096865818 0.32735521 1.603
0.099573791 0.32735521 1.603
0.10228176 0.32735521 1.603
0.10498974 0.32735521 1.603
0.10769771 0.32735521 1.603
0.11040568 0.32735521 1.603
0.11311366 0.32735521 1.603
0.11582164 0.32735521 1.603
0.11852961 0.32735521 1.603
0.12070815 0.32592571 1.5960001
0.1234043 0.32592571 1.5960001
0.12610045 0.32592571 1.5960001
0.12879659 0.32592571 1.5960001
0.13149275 0.32592571 1.5960001
0.13360035 0.32449618 1.5890001
0.13628468 0.32449618 1.5890001
0.13896899 0.32449618 1.5890001
0.14165331 0.32449618 1.5890001
0.14361095 0.32286248 1.5810001
0.14702196 0.32449618 1.5890001
0.14970629 0.32449618 1.5890001
0.15239061 0.32449618 1.5890001
0.15507492 0.32449618 1.5890001
0.15845422 0.32592571 1.5960001
0.16044357 0.32449618 1.5890001
0.16384652 0.32592571 1.5960001
0.16581222 0.32449618 1.5890001
0.16849655 0.32449618 1.5890001
0.17118087 0.32449618 1.5890001
0.17386518 0.32449618 1.5890001
0.17654951 0.32449618 1.5890001
0.17923383 0.32449618 1.5890001
0.18191816 0.32449618 1.5890001
0.18460248 0.32449618 1.5890001
0.18728681 0.32449618 1.5890001
0.18997112 0.32449618 1.5890001
0.19265544 0.32449618 1.5890001
0.19533977 0.32449618 1.5890001
0.19702712 0.32286248 1.5810001
0.19969793 0.32286248 1.5810001
0.20236874 0.32286248 1.5810001
0.28297263 0.26772466 1.3110001
0.28518733 0.26772466 1.3110001
0.287402 0.26772466 1.3110001
0.2896167 0.26772466 1.3110001
0.2918314 0.26772466 1.3110001
0.2940461 0.26772466 1.3110001
0.29513091 0.26670361 1.3060001
0.29733714 0.26670361 1.3060001
0.29954338 0.26670361 1.3060001
0.30174965 0.26670361 1.3060001
0.30395588 0.26670361 1.3060001
-0.23538701 0.28065005 1.363
-0.23222944 0.27962053 1.358
-0.22993535 0.27962053 1.358
-0.22764125 0.27962053 1.358
-0.22435153 0.27838507 1.3520001
-0.22206756 0.27838507 1.3520001
-0.2197836 0.27838507 1.3520001
-0.21749964 0.27838507 1.3520001
-0.2152157 0.27838507 1.3520001
-0.21293174 0.27838507 1.3520001
-0.21064778 0.27838507 1.3520001
-0.20928852 0.27962053 1.358
-0.20775656 0.28065005 1.363
-0.20620771 0.2816796 1.368
-0.20389672 0.2816796 1.368
-0.11116056 0.32862619 1.5960001
-0.10846441 0.32862619 1.5960001
-0.10576826 0.32862619 1.5960001
-0.10307212 0.32862619 1.5960001
-0.10037597 0.32862619 1.5960001
-0.098108239 0.33006755 1.603
-0.095400266 0.33006755 1.603
-0.092692293 0.33006755 1.603
-0.08998432 0.33006755 1.603
-0.087711908 0.33171478 1.6110001
-0.084568381 0.33006755 1.603
-0.081860408 0.33006755 1.603
-0.079152435 0.33006755 1.603
-0.076110639 0.32862619 1.5960001
-0.07341449 0.32862619 1.5960001
-0.070718348 0.32862619 1.5960001
-0.068320543 0.33006755 1.603
-0.065612569 0.33006755 1.603
-0.062904596 0.33006755 1.603
-0.060196619 0.33006755 1.603
-0.057488646 0.33006755 1.603
-0.055054061 0.33171478 1.6110001
-0.052332576 0.33171478 1.6110001
-0.049364723 0.33006755 1.603
-0.04665675 0.33006755 1.603
-0.043948777 0.33006755 1.603
-0.041240804 0.33006755 1.603
-0.038364567 0.32862619 1.5960001
-0.035668418 0.32862619 1.5960001
-0.032972272 0.32862619 1.5960001
-0.030276123 0.32862619 1.5960001
-0.027579976 0.32862619 1.5960001
-0.024883827 0.32862619 1.5960001
-0.02218768 0.32862619 1.5960001
-0.019491533 0.32862619 1.5960001
-0.016795384 0.32862619 1.5960001
-0.014099237 0.32862619 1.5960001
-0.011453102 0.33006755 1.603
-0.0087069422 0.32862619 1.5960001
-0.006037157 0.33006755 1.603
-0.003314646 0.32862619 1.5960001
-0.00062121073 0.33006755 1.603
0.0020867623 0.33006755 1.603
0.0047737975 0.32862619 1.5960001
0.0075027086 0.33006755 1.603
0.010210682 0.33006755 1.603
0.012918655 0.33006755 1.603
0.015626628 0.33006755 1.603
0.018254537 0.32862619 1.5960001
0.020950686 0.32862619 1.5960001
0.023543118 0.32718483 1.5890001
0.026095396 0.32553759 1.5810001
0.028766206 0.32553759 1.5810001
0.031437013 0.32553759 1.5810001
0.034280408 0.32718483 1.5890001
0.036964733 0.32718483 1.5890001
0.039823722 0.32862619 1.5960001
0.042706359 0.33006755 1.603
0.045640979 0.33171478 1.6110001
0.048122305 0.33006755 1.603
0.050830279 0.33006755 1.603
0.053538252 0.33006755 1.603
0.056246221 0.33006755 1.603
0.058954194 0.33006755 1.603
0.061662167 0.33006755 1.603
0.064089045 0.32862619 1.5960001
0.066785194 0.32862619 1.5960001
0.069481343 0.32862619 1.5960001
0.07249406 0.33006755 1.603
0.074873641 0.32862619 1.5960001
0.07756979 0.32862619 1.5960001
0.080265932 0.32862619 1.5960001
0.082962081 0.32862619 1.5960001
0.08565823 0.32862619 1.5960001
0.088354379 0.32862619 1.5960001
0.091449872 0.33006755 1.603
0.093746677 0.32862619 1.5960001
0.096865818 0.33006755 1.603
0.099573791 0.33006755 1.603
0.10228176 0.33006755 1.603
0.10498974 0.33006755 1.603
0.10769771 0.33006755 1.603
0.11040568 0.33006755 1.603
0.11311366 0.33006755 1.603
0.11582164 0.33006755 1.603
0.11852961 0.33006755 1.603
0.12123758 0.33006755 1.603
0.1234043 0.32862619 1.5960001
0.12610045 0.32862619 1.5960001
0.12879659 0.32862619 1.5960001
0.13149275 0.32862619 1.5960001
0.13418889 0.32862619 1.5960001
0.13688505 0.32862619 1.5960001
0.13958119 0.32862619 1.5960001
0.14227733 0.32862619 1.5960001
0.14433764 0.32718483 1.5890001
0.14702196 0.32718483 1.5890001
0.15036578 0.32862619 1.5960001
0.15306193 0.32862619 1.5960001
0.15575807 0.32862619 1.5960001
0.15845422 0.32862619 1.5960001
0.16115037 0.32862619 1.5960001
0.16384652 0.32862619 1.5960001
0.16581222 0.32718483 1.5890001
0.16849655 0.32718483 1.5890001
0.17118087 0.32718483 1.5890001
0.17386518 0.32718483 1.5890001
0.17654951 0.32718483 1.5890001
0.17923383 0.32718483 1.5890001
0.18191816 0.32718483 1.5890001
0.18460248 0.32718483 1.5890001
0.18728681 0.32718483 1.5890001
0.18997112 0.32718483 1.5890001
0.1916855 0.32553759 1.5810001
0.19435631 0.32553759 1.5810001
0.19702712 0.32553759 1.5810001
0.19969793 0.32553759 1.5810001
0.20236874 0.32553759 1.5810001
0.28297263 0.26994294 1.3110001
0.28518733 0.26994294 1.3110001
0.287402 0.26994294 1.3110001
0.2896167 0.26994294 1.3110001
0.2918314 0.26994294 1.3110001
0.2940461 0.26994294 1.3110001
0.29513091 0.26891342 1.3060001
0.29733714 0.26891342 1.3060001
0.29954338 0.26891342 1.3060001
0.30174965 0.26891342 1.3060001
0.30395588 0.26891342 1.3060001
-0.23538701 0.2829563 1.363
-0.23222944 0.28191832 1.358
-0.22993535 0.28191832 1.358
-0.22663549 0.28067273 1.3520001
-0.22435153 0.28067273 1.3520001
-0.22206756 0.28067273 1.3520001
-0.2197836 0.28067273 1.3520001
-0.21749964 0.28067273 1.3520001
-0.21441977 0.27963474 1.3470001
-0.21293174 0.28067273 1.3520001
-0.21064778 0.28067273 1.3520001
-0.20928852 0.28191832 1.358
-0.20775656 0.2829563 1.363
-0.20620771 0.28399429 1.368
-0.20389672 0.28399429 1.368
-0.11952336 0.30454651 1.4670001
-0.11656643 0.30330092 1.4610001
-0.11409833 0.30330092 1.4610001
-0.10187227 0.31118965 1.4990001
-0.10623216 0.33277988 1.603
-0.10352419 0.33277988 1.603
-0.10081621 0.33277988 1.603
-0.098108239 0.33277988 1.603
-0.095876373 0.33444065 1.6110001
-0.093154885 0.33444065 1.6110001
-0.090433396 0.33444065 1.6110001
-0.087711908 0.33444065 1.6110001
-0.084990419 0.33444065 1.6110001
-0.081860408 0.33277988 1.603
-0.079152435 0.33277988 1.603
-0.076110639 0.33132666 1.5960001
-0.07341449 0.33132666 1.5960001
-0.070718348 0.33132666 1.5960001
-0.068320543 0.33277988 1.603
-0.065612569 0.33277988 1.603
-0.062904596 0.33277988 1.603
-0.060196619 0.33277988 1.603
-0.057488646 0.33277988 1.603
-0.055054061 0.33444065 1.6110001
-0.052332576 0.33444065 1.6110001
-0.049364723 0.33277988 1.603
-0.04645301 0.33132666 1.5960001
-0.043756861 0.33132666 1.5960001
-0.041060716 0.33132666 1.5960001
-0.038364567 0.33132666 1.5960001
-0.035668418 0.33132666 1.5960001
-0.032972272 0.33132666 1.5960001
-0.030276123 0.33132666 1.5960001
-0.027579976 0.33132666 1.5960001
-0.024883827 0.33132666 1.5960001
-0.02218768 0.33132666 1.5960001
-0.019491533 0.33132666 1.5960001
-0.016795384 0.33132666 1.5960001
-0.014099237 0.33132666 1.5960001
-0.011403089 0.33132666 1.5960001
-0.0087069422 0.33132666 1.5960001
-0.0060107941 0.33132666 1.5960001
-0.003314646 0.33132666 1.5960001
-0.00061849802 0.33132666 1.5960001
0.0020867623 0.33277988 1.603
0.0047737975 0.33132666 1.5960001
0.0075027086 0.33277988 1.603
0.010210682 0.33277988 1.603
0.012918655 0.33277988 1.603
0.01555839 0.33132666 1.5960001
0.018254537 0.33132666 1.5960001
0.020858796 0.32987347 1.5890001
0.023424588 0.32821271 1.5810001
0.025979858 0.32675952 1.5740001
0.02863884 0.32675952 1.5740001
0.031297822 0.32675952 1.5740001
0.034280408 0.32987347 1.5890001
0.036964733 0.32987347 1.5890001
0.039823722 0.33132666 1.5960001
0.042706359 0.33277988 1.603
0.045640979 0.33444065 1.6110001
0.048122305 0.33277988 1.603
0.050830279 0.33277988 1.603
0.053538252 0.33277988 1.603
0.056246221 0.33277988 1.603
0.058696751 0.33132666 1.5960001
0.0613929 0.33132666 1.5960001
0.063807957 0.32987347 1.5890001
0.066492274 0.32987347 1.5890001
0.068828322 0.32821271 1.5810001
0.071860924 0.32987347 1.5890001
0.074545242 0.32987347 1.5890001
0.076840751 0.32821271 1.5810001
0.079511553 0.32821271 1.5810001
0.082598217 0.32987347 1.5890001
0.084853172 0.32821271 1.5810001
0.087966859 0.32987347 1.5890001
0.091050528 0.33132666 1.5960001
0.093746677 0.33132666 1.5960001
0.096442819 0.33132666 1.5960001
0.099573791 0.33277988 1.603
0.10228176 0.33277988 1.603
0.10498974 0.33277988 1.603
0.10769771 0.33277988 1.603
0.11095668 0.33444065 1.6110001
0.11311366 0.33277988 1.603
0.11582164 0.33277988 1.603
0.11852961 0.33277988 1.603
0.12123758 0.33277988 1.603
0.12394556 0.33277988 1.603
0.12610045 0.33132666 1.5960001
0.12879659 0.33132666 1.5960001
0.13149275 0.33132666 1.5960001
0.13418889 0.33132666 1.5960001
0.13688505 0.33132666 1.5960001
0.13958119 0.33132666 1.5960001
0.14227733 0.33132666 1.5960001
0.14497349 0.33132666 1.5960001
0.14766963 0.33132666 1.5960001
0.15036578 0.33132666 1.5960001
0.15306193 0.33132666 1.5960001
0.15575807 0.33132666 1.5960001
0.15845422 0.33132666 1.5960001
0.16115037 0.33132666 1.5960001
0.16384652 0.33132666 1.5960001
0.16654266 0.33132666 1.5960001
0.16849655 0.32987347 1.5890001
0.17118087 0.32987347 1.5890001
0.17386518 0.32987347 1.5890001
0.17654951 0.32987347 1.5890001
0.17923383 0.32987347 1.5890001
0.18191816 0.32987347 1.5890001
0.18460248 0.32987347 1.5890001
0.18728681 0.32987347 1.5890001
0.18997112 0.32987347 1.5890001
0.1916855 0.32821271 1.5810001
0.19435631 0.32821271 1.5810001
0.19702712 0.32821271 1.5810001
0.19881374 0.32675952 1.5740001
0.28405187 0.27319917 1.3160001
0.28518733 0.27216119 1.3110001
0.2863059 0.2711232 1.3060001
0.2896167 0.27216119 1.3110001
0.2918314 0.27216119 1.3110001
0.29292464 0.2711232 1.3060001
0.29513091 0.2711232 1.3060001
0.29733714 0.2711232 1.3060001
0.30183697 0.27319917 1.3160001
0.30174965 0.2711232 1.3060001
0.30628327 0.27319917 1.3160001
-0.23768954 0.28526255 1.363
-0.23538701 0.28526255 1.363
-0.23120339 0.28296036 1.3520001
-0.22891943 0.28296036 1.3520001
-0.22663549 0.28296036 1.3520001
-0.22435153 0.28296036 1.3520001
-0.22206756 0.28296036 1.3520001
-0.21897079 0.28191391 1.3470001
-0.21669528 0.28191391 1.3470001
-0.21441977 0.28191391 1.3470001
-0.21214427 0.28191391 1.3470001
-0.21064778 0.28296036 1.3520001
-0.20836383 0.28296036 1.3520001
-0.20775656 0.28526255 1.363
-0.20620771 0.286309 1.368
-0.20479101 0.28756472 1.3740001
-0.20246989 0.28756472 1.3740001
-0.14863722 0.30075005 1.437
-0.14620967 0.30075005 1.437
-0.12200159 0.30702874 1.4670001
-0.11952336 0.30702874 1.4670001
-0.11656643 0.30577299 1.4610001
-0.11409833 0.30577299 1.4610001
-0.11208868 0.30702874 1.4670001
-0.099339992 0.31372604 1.4990001
-0.096807711 0.31372604 1.4990001
-0.1017596 0.33863154 1.618
-0.099026285 0.33863154 1.618
-0.096292973 0.33863154 1.618
-0.093154885 0.33716652 1.6110001
-0.090433396 0.33716652 1.6110001
-0.087711908 0.33716652 1.6110001
-0.084990419 0.33716652 1.6110001
-0.082268938 0.33716652 1.6110001
-0.079152435 0.33549222 1.603
-0.076110639 0.33402717 1.5960001
-0.07341449 0.33402717 1.5960001
-0.070718348 0.33402717 1.5960001
-0.068022199 0.33402717 1.5960001
-0.06532605 0.33402717 1.5960001
-0.062629901 0.33402717 1.5960001
-0.059933752 0.33402717 1.5960001
-0.057488646 0.33549222 1.603
-0.055054061 0.33716652 1.6110001
-0.052332576 0.33716652 1.6110001
-0.049149159 0.33402717 1.5960001
-0.04624927 0.33256212 1.5890001
-0.043756861 0.33402717 1.5960001
-0.041060716 0.33402717 1.5960001
-0.038364567 0.33402717 1.5960001
-0.035511978 0.33256212 1.5890001
-0.032827657 0.33256212 1.5890001
-0.030143334 0.33256212 1.5890001
-0.027579976 0.33402717 1.5960001
-0.024774689 0.33256212 1.5890001
-0.022090366 0.33256212 1.5890001
-0.019406043 0.33256212 1.5890001
-0.016721722 0.33256212 1.5890001
-0.014037399 0.33256212 1.5890001
-0.011353076 0.33256212 1.5890001
-0.0086687533 0.33256212 1.5890001
-0.0059844307 0.33256212 1.5890001
-0.003300108 0.33256212 1.5890001
-0.00061578531 0.33256212 1.5890001
0.0020776498 0.33402717 1.5960001
0.0047737975 0.33402717 1.5960001
0.0074699451 0.33402717 1.5960001
0.010166093 0.33402717 1.5960001
0.012805828 0.33256212 1.5890001
0.015490151 0.33256212 1.5890001
0.018082971 0.33088779 1.5810001
0.020661892 0.3294228 1.5740001
0.02321716 0.32795775 1.567
0.025864318 0.32795775 1.567
0.028511476 0.32795775 1.567
0.031019442 0.32649273 1.5600001
0.03350376 0.3250277 1.5530001
0.036290109 0.32649273 1.5600001
0.039649054 0.33256212 1.5890001
0.042333376 0.33256212 1.5890001
0.045839295 0.33863154 1.618
0.048122305 0.33549222 1.603
0.050830279 0.33549222 1.603
0.05330446 0.33402717 1.5960001
0.056000605 0.33402717 1.5960001
0.057887647 0.3294228 1.5740001
0.060546633 0.3294228 1.5740001
0.062924519 0.32795775 1.567
0.065571681 0.32795775 1.567
0.067609355 0.3250277 1.5530001
0.070232868 0.3250277 1.5530001
0.072856374 0.3250277 1.5530001
0.075820096 0.32649273 1.5600001
0.078455433 0.32649273 1.5600001
0.081090763 0.32649273 1.5600001
0.084101781 0.32795775 1.567
0.087136462 0.3294228 1.5740001
0.090194792 0.33088779 1.5810001
0.093335502 0.33256212 1.5890001
0.096019827 0.33256212 1.5890001
0.099138968 0.33402717 1.5960001
0.10183512 0.33402717 1.5960001
0.10498974 0.33549222 1.603
0.10769771 0.33549222 1.603
0.11095668 0.33716652 1.6110001
0.11311366 0.33549222 1.603
0.11582164 0.33549222 1.603
0.11852961 0.33549222 1.603
0.12123758 0.33549222 1.603
0.12394556 0.33549222 1.603
0.12665352 0.33549222 1.603
0.12879659 0.33402717 1.5960001
0.13149275 0.33402717 1.5960001
0.13418889 0.33402717 1.5960001
0.13688505 0.33402717 1.5960001
0.13958119 0.33402717 1.5960001
0.14227733 0.33402717 1.5960001
0.14433764 0.33256212 1.5890001
0.14766963 0.33402717 1.5960001
0.15036578 0.33402717 1.5960001
0.15306193 0.33402717 1.5960001
0.15575807 0.33402717 1.5960001
0.15845422 0.33402717 1.5960001
0.16115037 0.33402717 1.5960001
0.16384652 0.33402717 1.5960001
0.16581222 0.33256212 1.5890001
0.16849655 0.33256212 1.5890001
0.17118087 0.33256212 1.5890001
0.17386518 0.33256212 1.5890001
0.17654951 0.33256212 1.5890001
0.17923383 0.33256212 1.5890001
0.18191816 0.33256212 1.5890001
0.18460248 0.33256212 1.5890001
0.18811184 0.33402717 1.5960001
0.18997112 0.33256212 1.5890001
0.28182873 0.27542591 1.3160001
0.28297263 0.27437946 1.3110001
0.28518733 0.27437946 1.3110001
0.2863059 0.27333301 1.3060001
0.2896167 0.27437946 1.3110001
0.2918314 0.27437946 1.3110001
0.29292464 0.27333301 1.3060001
0.29513091 0.27333301 1.3060001
0.29619879 0.27228656 1.3010001
0.29839659 0.27228656 1.3010001
0.30059439 0.27228656 1.3010001
0.30279219 0.27228656 1.3010001
-0.23538701 0.28756881 1.363
-0.23120339 0.28524798 1.3520001
-0.22891943 0.28524798 1.3520001
-0.22663549 0.28524798 1.3520001
-0.22435153 0.28524798 1.3520001
-0.22206756 0.28524798 1.3520001
-0.21897079 0.28419307 1.3470001
-0.21669528 0.28419307 1.3470001
-0.21441977 0.28419307 1.3470001
-0.21293174 0.28524798 1.3520001
-0.21064778 0.28524798 1.3520001
-0.20928852 0.28651389 1.358
-0.20699443 0.28651389 1.358
-0.20620771 0.28862372 1.368
-0.20389672 0.28862372 1.368
-0.15834741 0.3031815 1.437
-0.15591986 0.3031815 1.437
-0.15285143 0.30191559 1.4310001
-0.15043402 0.30191559 1.4310001
-0.14801662 0.30191559 1.4310001
-0.14620967 0.3031815 1.437
-0.14378214 0.3031815 1.437
-0.12625992 0.30191559 1.4310001
-0.12447982 0.30951095 1.4670001
-0.12200159 0.30951095 1.4670001
-0.11903451 0.30824503 1.4610001
-0.11656643 0.30824503 1.4610001
-0.11409833 0.30824503 1.4610001
-0.11163025 0.30824503 1.4610001
-0.10916215 0.30824503 1.4610001
-0.10669407 0.30824503 1.4610001
-0.10187227 0.31626239 1.4990001
-0.099339992 0.31626239 1.4990001
-0.096807711 0.31626239 1.4990001
-0.094275422 0.31626239 1.4990001
-0.092171557 0.31773925 1.506
-0.089627452 0.31773925 1.506
-0.09355966 0.34136927 1.618
-0.090826347 0.34136927 1.618
-0.088093035 0.34136927 1.618
-0.084990419 0.33989242 1.6110001
-0.082268938 0.33989242 1.6110001
-0.078806788 0.33672765 1.5960001
-0.075776823 0.33525077 1.5890001
-0.073092498 0.33525077 1.5890001
-0.070718348 0.33672765 1.5960001
-0.068022199 0.33672765 1.5960001
-0.06503953 0.33525077 1.5890001
-0.062355209 0.33525077 1.5890001
-0.059933752 0.33672765 1.5960001
-0.057775546 0.33989242 1.6110001
-0.055054061 0.33989242 1.6110001
-0.052332576 0.33989242 1.6110001
-0.048687231 0.33356291 1.5810001
-0.044793975 0.32470167 1.539
-0.042194117 0.32470167 1.539
-0.040674806 0.33356291 1.5810001
-0.038003996 0.33356291 1.5810001
-0.03533319 0.33356291 1.5810001
-0.032827657 0.33525077 1.5890001
-0.030143334 0.33525077 1.5890001
-0.027459012 0.33525077 1.5890001
-0.024774689 0.33525077 1.5890001
-0.022090366 0.33525077 1.5890001
-0.019406043 0.33525077 1.5890001
-0.016637534 0.33356291 1.5810001
-0.013966726 0.33356291 1.5810001
-0.011295917 0.33356291 1.5810001
-0.0086251097 0.33356291 1.5810001
-0.0059543015 0.33356291 1.5810001
-0.0032834932 0.33356291 1.5810001
-0.00060725963 0.33060917 1.567
0.002058123 0.33356291 1.5810001
0.004728931 0.33356291 1.5810001
0.0074371826 0.33525077 1.5890001
0.010025959 0.33208606 1.5740001
0.012572115 0.32913229 1.5600001
0.015207447 0.32913229 1.5600001
0.017762717 0.32765543 1.5530001
0.020386225 0.32765543 1.5530001
0.023009732 0.32765543 1.5530001
0.025633238 0.32765543 1.5530001
0.028256744 0.32765543 1.5530001
0.030880252 0.32765543 1.5530001
0.033352744 0.32617855 1.5460001
0.035964426 0.32617855 1.5460001
0.038576107 0.32617855 1.5460001
0.041187789 0.32617855 1.5460001
0.043402843 0.32322481 1.5320001
0.045780733 0.32174793 1.5250001
0.048356939 0.32174793 1.5250001
0.051166937 0.32322481 1.5320001
0.054246202 0.32617855 1.5460001
0.056857884 0.32617855 1.5460001
0.059738837 0.32765543 1.5530001
0.062362343 0.32765543 1.5530001
0.064985849 0.32765543 1.5530001
0.067304611 0.32617855 1.5460001
0.069916293 0.32617855 1.5460001
0.072527975 0.32617855 1.5460001
0.075139657 0.32617855 1.5460001
0.077751338 0.32617855 1.5460001
0.080363028 0.32617855 1.5460001
0.083350398 0.32765543 1.5530001
0.085973911 0.32765543 1.5530001
0.088597417 0.32765543 1.5530001
0.090809755 0.32617855 1.5460001
0.093421437 0.32617855 1.5460001
0.096033119 0.32617855 1.5460001
0.0986448 0.32617855 1.5460001
0.10407279 0.33525077 1.5890001
0.10722741 0.33672765 1.5960001
0.11040568 0.33820453 1.603
0.11311366 0.33820453 1.603
0.11582164 0.33820453 1.603
0.118012 0.33672765 1.5960001
0.12070815 0.33672765 1.5960001
0.1234043 0.33672765 1.5960001
0.12610045 0.33672765 1.5960001
0.12879659 0.33672765 1.5960001
0.13149275 0.33672765 1.5960001
0.13418889 0.33672765 1.5960001
0.13688505 0.33672765 1.5960001
0.13958119 0.33672765 1.5960001
0.14227733 0.33672765 1.5960001
0.14433764 0.33525077 1.5890001
0.14702196 0.33525077 1.5890001
0.14970629 0.33525077 1.5890001
0.15306193 0.33672765 1.5960001
0.15575807 0.33672765 1.5960001
0.15845422 0.33672765 1.5960001
0.16115037 0.33672765 1.5960001
0.16384652 0.33672765 1.5960001
0.16581222 0.33525077 1.5890001
0.16849655 0.33525077 1.5890001
0.17118087 0.33525077 1.5890001
0.17386518 0.33525077 1.5890001
0.17732726 0.33672765 1.5960001
0.1800234 0.33672765 1.5960001
0.18271956 0.33672765 1.5960001
0.28075793 0.27659771 1.3110001
0.28297263 0.27659771 1.3110001
0.28518733 0.27659771 1.3110001
0.2863059 0.2755428 1.3060001
0.2896167 0.27659771 1.3110001
0.2918314 0.27659771 1.3110001
0.29292464 0.2755428 1.3060001
0.29513091 0.2755428 1.3060001
0.29733714 0.2755428 1.3060001
0.29839659 0.27448791 1.3010001
0.30174965 0.2755428 1.3060001
0.30279219 0.27448791 1.3010001
-0.23538701 0.28987506 1.363
-0.23120339 0.28753564 1.3520001
-0.22891943 0.28753564 1.3520001
-0.22663549 0.28753564 1.3520001
-0.2235218 0.28647226 1.3470001
-0.2212463 0.28647226 1.3470001
-0.21897079 0.28647226 1.3470001
-0.21669528 0.28647226 1.3470001
-0.21441977 0.28647226 1.3470001
-0.21214427 0.28647226 1.3470001
-0.21064778 0.28753564 1.3520001
-0.20928852 0.28881168 1.358
-0.20775656 0.28987506 1.363
-0.20620771 0.29093841 1.368
-0.20389672 0.29093841 1.368
-0.16077496 0.30561295 1.437
-0.15768626 0.30433688 1.4310001
-0.15526885 0.30433688 1.4310001
-0.15221055 0.30306086 1.4250001
-0.14980328 0.30306086 1.4250001
-0.14801662 0.30433688 1.4310001
-0.1455992 0.30433688 1.4310001
-0.14318179 0.30433688 1.4310001
-0.14076439 0.30433688 1.4310001
-0.1316444 0.30561295 1.437
-0.12867732 0.30433688 1.4310001
-0.12625992 0.30433688 1.4310001
-0.12384251 0.30433688 1.4310001
-0.12397069 0.31071711 1.4610001
-0.12150261 0.31071711 1.4610001
-0.11903451 0.31071711 1.4610001
-0.11656643 0.31071711 1.4610001
-0.11409833 0.31071711 1.4610001
-0.11163025 0.31071711 1.4610001
-0.10916215 0.31071711 1.4610001
-0.10669407 0.31071711 1.4610001
-0.10465401 0.31199318 1.4670001
-0.10349912 0.31603396 1.4860001
-0.1009888 0.31603396 1.4860001
-0.098876096 0.31731004 1.4920001
-0.096355639 0.31731004 1.4920001
-0.094275422 0.31879875 1.4990001
-0.091743141 0.31879875 1.4990001
-0.089627452 0.32028747 1.506
-0.08708334 0.32028747 1.506
-0.084539227 0.32028747 1.506
-0.081995122 0.32028747 1.506
-0.07945101 0.32028747 1.506
-0.076906905 0.32028747 1.506
-0.074659064 0.32156351 1.5120001
-0.072104819 0.32156351 1.5120001
-0.069550574 0.32156351 1.5120001
-0.066730462 0.32028747 1.506
-0.064186357 0.32028747 1.506
-0.061887838 0.32156351 1.5120001
-0.059333593 0.32156351 1.5120001
-0.056779347 0.32156351 1.5120001
-0.054225098 0.32156351 1.5120001
-0.051910069 0.32305223 1.5190001
-0.049343996 0.32305223 1.5190001
-0.047393832 0.3273057 1.539
-0.044793975 0.3273057 1.539
-0.042194117 0.3273057 1.539
-0.039594259 0.3273057 1.539
-0.036994405 0.3273057 1.539
-0.034394547 0.3273057 1.539
-0.03179469 0.3273057 1.539
-0.029194834 0.3273057 1.539
-0.026594978 0.3273057 1.539
-0.024649959 0.33623803 1.5810001
-0.021979149 0.33623803 1.5810001
-0.019308342 0.33623803 1.5810001
-0.016490206 0.3332606 1.567
-0.013843048 0.3332606 1.567
-0.011095864 0.33028316 1.5530001
-0.008472356 0.33028316 1.5530001
-0.0058488487 0.33028316 1.5530001
-0.0032253414 0.33028316 1.5530001
-0.0005991215 0.32879445 1.5460001
0.0020034481 0.3273057 1.539
0.0046033049 0.3273057 1.539
0.0072031622 0.3273057 1.539
0.0098476065 0.32879445 1.5460001
0.012459289 0.32879445 1.5460001
0.015070971 0.32879445 1.5460001
0.017682653 0.32879445 1.5460001
0.020294335 0.32879445 1.5460001
0.022906017 0.32879445 1.5460001
0.025517698 0.32879445 1.5460001
0.02812938 0.32879445 1.5460001
0.030741062 0.32879445 1.5460001
0.033352744 0.32879445 1.5460001
0.035964426 0.32879445 1.5460001
0.038401444 0.3273057 1.539
0.04081481 0.32581702 1.5320001
0.043402843 0.32581702 1.5320001
0.045780733 0.32432827 1.5250001
0.048356939 0.32432827 1.5250001
0.051166937 0.32581702 1.5320001
0.05375497 0.32581702 1.5320001
0.056600444 0.3273057 1.539
0.059200302 0.3273057 1.539
0.061800156 0.3273057 1.539
0.064692929 0.32879445 1.5460001
0.066999868 0.3273057 1.539
0.069599725 0.3273057 1.539
0.071871191 0.32581702 1.5320001
0.074799441 0.3273057 1.539
0.077399299 0.3273057 1.539
0.079999156 0.3273057 1.539
0.082599014 0.3273057 1.539
0.085586391 0.32879445 1.5460001
0.088198073 0.32879445 1.5460001
0.090809755 0.32879445 1.5460001
0.093421437 0.32879445 1.5460001
0.096033119 0.32879445 1.5460001
0.0986448 0.32879445 1.5460001
0.10125648 0.32879445 1.5460001
0.10339787 0.3273057 1.539
0.10599773 0.3273057 1.539
0.10760969 0.32432827 1.5250001
0.11531585 0.33942816 1.5960001
0.118012 0.33942816 1.5960001
0.12070815 0.33942816 1.5960001
0.1234043 0.33942816 1.5960001
0.12610045 0.33942816 1.5960001
0.12879659 0.33942816 1.5960001
0.13149275 0.33942816 1.5960001
0.13360035 0.33793941 1.5890001
0.13628468 0.33793941 1.5890001
0.13896899 0.33793941 1.5890001
0.14165331 0.33793941 1.5890001
0.14433764 0.33793941 1.5890001
0.14702196 0.33793941 1.5890001
0.15036578 0.33942816 1.5960001
0.15306193 0.33942816 1.5960001
0.15575807 0.33942816 1.5960001
0.15845422 0.33942816 1.5960001
0.16115037 0.33942816 1.5960001
0.16384652 0.33942816 1.5960001
0.16581222 0.33793941 1.5890001
0.16849655 0.33793941 1.5890001
0.17118087 0.33793941 1.5890001
0.1800234 0.33942816 1.5960001
0.18352096 0.34091687 1.603
0.28182873 0.27987933 1.3160001
0.28297263 0.27881598 1.3110001
0.28518733 0.27881598 1.3110001
0.2863059 0.27775261 1.3060001
0.2896167 0.27881598 1.3110001
0.2918314 0.27881598 1.3110001
0.2940461 0.27881598 1.3110001
0.29513091 0.27775261 1.3060001
0.29733714 0.27775261 1.3060001
0.29954338 0.27775261 1.3060001
0.30174965 0.27775261 1.3060001
0.30395588 0.27775261 1.3060001
0.30733424 0.27881598 1.3110001
-0.23538701 0.29218128 1.363
-0.23120339 0.28982326 1.3520001
-0.22891943 0.28982326 1.3520001
-0.22579731 0.28875142 1.3470001
-0.2235218 0.28875142 1.3470001
-0.2212463 0.28875142 1.3470001
-0.21897079 0.28875142 1.3470001
-0.21669528 0.28875142 1.3470001
-0.21441977 0.28875142 1.3470001
-0.21214427 0.28875142 1.3470001
-0.21064778 0.28982326 1.3520001
-0.20928852 0.29110947 1.358
-0.20851868 0.29325312 1.368
-0.20620771 0.29325312 1.368
-0.16326264 0.29925537 1.396
-0.16090435 0.29925537 1.396
-0.15854606 0.29925537 1.396
-0.15943238 0.30547202 1.4250001
-0.1570251 0.30547202 1.4250001
-0.1539668 0.30418581 1.419
-0.15156965 0.30418581 1.419
-0.14980328 0.30547202 1.4250001
-0.147396 0.30547202 1.4250001
-0.1455992 0.3067582 1.4310001
-0.14318179 0.3067582 1.4310001
-0.14017418 0.30547202 1.4250001
-0.1377669 0.30547202 1.4250001
-0.13592955 0.3067582 1.4310001
-0.13295235 0.30547202 1.4250001
-0.13109474 0.3067582 1.4310001
-0.12867732 0.3067582 1.4310001
-0.12625992 0.3067582 1.4310001
-0.12384251 0.3067582 1.4310001
-0.12295245 0.31061679 1.4490001
-0.12100363 0.311903 1.455
-0.11903451 0.31318918 1.4610001
-0.11608771 0.311903 1.455
-0.11362976 0.311903 1.455
-0.11163025 0.31318918 1.4610001
-0.10916215 0.31318918 1.4610001
-0.10669407 0.31318918 1.4610001
-0.10422597 0.31318918 1.4610001
-0.10259368 0.31576157 1.473
-0.1009888 0.31854832 1.4860001
-0.098478474 0.31854832 1.4860001
-0.09596815 0.31854832 1.4860001
-0.093835175 0.31983456 1.4920001
-0.091314718 0.31983456 1.4920001
-0.089210853 0.32133511 1.4990001
-0.086678572 0.32133511 1.4990001
-0.084146284 0.32133511 1.4990001
-0.081995122 0.32283565 1.506
-0.07945101 0.32283565 1.506
-0.076906905 0.32283565 1.506
-0.074659064 0.32412189 1.5120001
-0.072104819 0.32412189 1.5120001
-0.069550574 0.32412189 1.5120001
-0.066730462 0.32283565 1.506
-0.064186357 0.32283565 1.506
-0.061887838 0.32412189 1.5120001
-0.059333593 0.32412189 1.5120001
-0.056779347 0.32412189 1.5120001
-0.054225098 0.32412189 1.5120001
-0.051910069 0.32562244 1.5190001
-0.049343996 0.32562244 1.5190001
-0.047178265 0.32840919 1.5320001
-0.044590235 0.32840919 1.5320001
-0.042002201 0.32840919 1.5320001
-0.039414171 0.32840919 1.5320001
-0.036826137 0.32840919 1.5320001
-0.034238108 0.32840919 1.5320001
-0.03179469 0.32990974 1.539
-0.029062044 0.32840919 1.5320001
-0.026594978 0.32990974 1.539
-0.02399512 0.32990974 1.539
-0.021395264 0.32990974 1.539
-0.018795406 0.32990974 1.539
-0.016269214 0.33141032 1.5460001
-0.013657532 0.33141032 1.5460001
-0.010995836 0.32990974 1.539
-0.0083959792 0.32990974 1.539
-0.0057961224 0.32990974 1.539
-0.0031962658 0.32990974 1.539
-0.00059369608 0.32840919 1.5320001
0.0019943356 0.32840919 1.5320001
0.0045823669 0.32840919 1.5320001
0.0072031622 0.32990974 1.539
0.0098030185 0.32990974 1.539
0.012402876 0.32990974 1.539
0.015002732 0.32990974 1.539
0.017602589 0.32990974 1.539
0.020294335 0.33141032 1.5460001
0.022906017 0.33141032 1.5460001
0.025517698 0.33141032 1.5460001
0.028002018 0.32990974 1.539
0.030601874 0.32990974 1.539
0.033201732 0.32990974 1.539
0.035638746 0.32840919 1.5320001
0.03822678 0.32840919 1.5320001
0.040628321 0.32690865 1.5250001
0.043034542 0.32562244 1.5190001
0.045600612 0.32562244 1.5190001
0.048166685 0.32562244 1.5190001
0.050933145 0.32690865 1.5250001
0.053509351 0.32690865 1.5250001
0.056085557 0.32690865 1.5250001
0.058661766 0.32690865 1.5250001
0.061519064 0.32840919 1.5320001
0.064107098 0.32840919 1.5320001
0.066695124 0.32840919 1.5320001
0.069283158 0.32840919 1.5320001
0.071871191 0.32840919 1.5320001
0.074459225 0.32840919 1.5320001
0.077047251 0.32840919 1.5320001
0.079635285 0.32840919 1.5320001
0.082223319 0.32840919 1.5320001
0.084811352 0.32840919 1.5320001
0.087798722 0.32990974 1.539
0.09039858 0.32990974 1.539
0.092998438 0.32990974 1.539
0.095163472 0.32840919 1.5320001
0.098198153 0.32990974 1.539
0.10033954 0.32840919 1.5320001
0.10292757 0.32840919 1.5320001
0.10503348 0.32690865 1.5250001
0.10760969 0.32690865 1.5250001
0.1092466 0.32412189 1.5120001
0.11180085 0.32412189 1.5120001
0.11488451 0.32562244 1.5190001
0.11745059 0.32562244 1.5190001
0.12554738 0.34062806 1.5890001
0.1282317 0.34062806 1.5890001
0.13091603 0.34062806 1.5890001
0.13233916 0.3374126 1.5740001
0.13439779 0.33591202 1.567
0.13520834 0.33141032 1.5460001
0.13594796 0.32690865 1.5250001
0.1404317 0.33141032 1.5460001
0.14304338 0.33141032 1.5460001
0.14499557 0.32990974 1.539
0.14625278 0.32690865 1.5250001
0.15575807 0.34212863 1.5960001
0.15845422 0.34212863 1.5960001
0.16115037 0.34212863 1.5960001
0.16384652 0.34212863 1.5960001
0.16654266 0.34212863 1.5960001
0.16849655 0.34062806 1.5890001
0.17118087 0.34062806 1.5890001
0.28066793 0.28317791 1.3210001
0.2828995 0.28317791 1.3210001
0.28405187 0.28210607 1.3160001
0.28518733 0.28103423 1.3110001
0.287402 0.28103423 1.3110001
0.2896167 0.28103423 1.3110001
0.2918314 0.28103423 1.3110001
0.2940461 0.28103423 1.3110001
0.29626077 0.28103423 1.3110001
0.29847547 0.28103423 1.3110001
0.30069017 0.28103423 1.3110001
0.30290487 0.28103423 1.3110001
0.30511954 0.28103423 1.3110001
0.30733424 0.28103423 1.3110001
-0.23625049 0.29556784 1.368
-0.23120339 0.29211089 1.3520001
-0.22807282 0.29103062 1.3470001
-0.22579731 0.29103062 1.3470001
-0.2235218 0.29103062 1.3470001
-0.2212463 0.29103062 1.3470001
-0.21897079 0.29103062 1.3470001
-0.21669528 0.29103062 1.3470001
-0.21441977 0.29103062 1.3470001
-0.21214427 0.29103062 1.3470001
-0.21064778 0.29211089 1.3520001
-0.20928852 0.29340726 1.358
-0.20851868 0.29556784 1.368
-0.20620771 0.29556784 1.368
-0.20389672 0.29556784 1.368
-0.20158574 0.29556784 1.368
-0.17741235 0.30161747 1.396
-0.17505406 0.30161747 1.396
-0.17195353 0.3003211 1.3900001
-0.16326264 0.30161747 1.396
-0.16090435 0.30161747 1.396
-0.15854606 0.30161747 1.396
-0.15618779 0.30161747 1.396
-0.15449065 0.30291381 1.4020001
-0.15266475 0.30399409 1.4070001
-0.15028788 0.30399409 1.4070001
-0.14791101 0.30399409 1.4070001
-0.14615476 0.30529046 1.4130001
-0.14498873 0.30788317 1.4250001
-0.14258145 0.30788317 1.4250001
-0.14017418 0.30788317 1.4250001
-0.1377669 0.30788317 1.4250001
-0.13535963 0.30788317 1.4250001
-0.13295235 0.30788317 1.4250001
-0.13054508 0.30788317 1.4250001
-0.1281378 0.30788317 1.4250001
-0.12573053 0.30788317 1.4250001
-0.12384251 0.30917948 1.4310001
-0.12244333 0.3117722 1.4430001
-0.12050463 0.31306857 1.4490001
-0.11854567 0.31436491 1.455
-0.11608771 0.31436491 1.455
-0.11362976 0.31436491 1.455
-0.1111718 0.31436491 1.455
-0.10871384 0.31436491 1.455
-0.10625589 0.31436491 1.455
-0.10379793 0.31436491 1.455
-0.10175788 0.31566125 1.4610001
-0.1009888 0.32106271 1.4860001
-0.098478474 0.32106271 1.4860001
-0.09596815 0.32106271 1.4860001
-0.093457825 0.32106271 1.4860001
-0.091314718 0.32235906 1.4920001
-0.088794261 0.32235906 1.4920001
-0.086678572 0.32387149 1.4990001
-0.084146284 0.32387149 1.4990001
-0.081614003 0.32387149 1.4990001
-0.079081722 0.32387149 1.4990001
-0.076549433 0.32387149 1.4990001
-0.074362792 0.32538387 1.506
-0.07181868 0.32538387 1.506
-0.069274575 0.32538387 1.506
-0.066730462 0.32538387 1.506
-0.064186357 0.32538387 1.506
-0.061642244 0.32538387 1.506
-0.059333593 0.32668024 1.5120001
-0.056779347 0.32668024 1.5120001
-0.054225098 0.32668024 1.5120001
-0.051670853 0.32668024 1.5120001
-0.049343996 0.32819262 1.5190001
-0.046962701 0.32948899 1.5250001
-0.044590235 0.3310014 1.5320001
-0.041810285 0.32948899 1.5250001
-0.039414171 0.3310014 1.5320001
-0.036657874 0.32948899 1.5250001
-0.034081668 0.32948899 1.5250001
-0.031381503 0.32819262 1.5190001
-0.028929254 0.32948899 1.5250001
-0.026249364 0.32819262 1.5190001
-0.02377684 0.32948899 1.5250001
-0.021200635 0.32948899 1.5250001
-0.018709917 0.3310014 1.5320001
-0.016121885 0.3310014 1.5320001
-0.013533855 0.3310014 1.5320001
-0.010945823 0.3310014 1.5320001
-0.0083577912 0.3310014 1.5320001
-0.0057697594 0.3310014 1.5320001
-0.0031817278 0.3310014 1.5320001
-0.00059369608 0.3310014 1.5320001
0.0019943356 0.3310014 1.5320001
0.0045823669 0.3310014 1.5320001
0.0072031622 0.33251381 1.539
0.0098030185 0.33251381 1.539
0.012402876 0.33251381 1.539
0.015002732 0.33251381 1.539
0.017602589 0.33251381 1.539
0.020202445 0.33251381 1.539
0.022802303 0.33251381 1.539
0.025402158 0.33251381 1.539
0.028002018 0.33251381 1.539
0.030601874 0.33251381 1.539
0.033050716 0.3310014 1.5320001
0.035638746 0.3310014 1.5320001
0.038052112 0.32948899 1.5250001
0.040468473 0.32819262 1.5190001
0.043034542 0.32819262 1.5190001
0.045600612 0.32819262 1.5190001
0.048166685 0.32819262 1.5190001
0.050732754 0.32819262 1.5190001
0.053509351 0.32948899 1.5250001
0.056085557 0.32948899 1.5250001
0.058661766 0.32948899 1.5250001
0.061237972 0.32948899 1.5250001
0.063814178 0.32948899 1.5250001
0.06639038 0.32948899 1.5250001
0.06896659 0.32948899 1.5250001
0.071542799 0.32948899 1.5250001
0.074459225 0.3310014 1.5320001
0.076695211 0.32948899 1.5250001
0.079271413 0.32948899 1.5250001
0.082223319 0.3310014 1.5320001
0.084811352 0.3310014 1.5320001
0.087399378 0.3310014 1.5320001
0.089987412 0.3310014 1.5320001
0.092575446 0.3310014 1.5320001
0.095163472 0.3310014 1.5320001
0.097751506 0.3310014 1.5320001
0.099881068 0.32948899 1.5250001
0.10245728 0.32948899 1.5250001
0.10462023 0.32819262 1.5190001
0.10669236 0.32668024 1.5120001
0.1092466 0.32668024 1.5120001
0.11180085 0.32668024 1.5120001
0.11488451 0.32819262 1.5190001
0.11745059 0.32819262 1.5190001
0.12001666 0.32819262 1.5190001
0.12258273 0.32819262 1.5190001
0.12564313 0.32948899 1.5250001
0.12771487 0.32819262 1.5190001
0.13028094 0.32819262 1.5190001
0.13337176 0.32948899 1.5250001
0.13594796 0.32948899 1.5250001
0.13852416 0.32948899 1.5250001
0.14110038 0.32948899 1.5250001
0.14367658 0.32948899 1.5250001
0.14567736 0.32819262 1.5190001
0.14824343 0.32819262 1.5190001
0.15011454 0.32668024 1.5120001
0.15266877 0.32668024 1.5120001
0.15388842 0.32387149 1.4990001
0.15850772 0.32819262 1.5190001
0.16107379 0.32819262 1.5190001
0.16073118 0.32235906 1.4920001
0.16325164 0.32235906 1.4920001
0.1657721 0.32235906 1.4920001
0.16829255 0.32235906 1.4920001
0.17514674 0.32106271 1.4860001
0.17837439 0.32235906 1.4920001
0.2796056 0.28433278 1.3160001
0.28182873 0.28433278 1.3160001
0.28405187 0.28433278 1.3160001
0.28518733 0.28325251 1.3110001
0.287402 0.28325251 1.3110001
0.2896167 0.28325251 1.3110001
0.2918314 0.28325251 1.3110001
0.2940461 0.28325251 1.3110001
0.29626077 0.28325251 1.3110001
0.29847547 0.28325251 1.3110001
0.30069017 0.28325251 1.3110001
0.30290487 0.28325251 1.3110001
0.30511954 0.28325251 1.3110001
0.30733424 0.28325251 1.3110001
-0.22807282 0.29330978 1.3470001
-0.22579731 0.29330978 1.3470001
-0.2235218 0.29330978 1.3470001
-0.2212463 0.29330978 1.3470001
-0.21897079 0.29330978 1.3470001
-0.21669528 0.29330978 1.3470001
-0.21362387 0.29222104 1.342
-0.21214427 0.29330978 1.3470001
-0.21064778 0.29439852 1.3520001
-0.20928852 0.29570505 1.358
-0.20851868 0.29788253 1.368
-0.20711212 0.29918903 1.3740001
-0.20479101 0.29918903 1.3740001
-0.20246989 0.29918903 1.3740001
-0.17977063 0.30397955 1.396
-0.17741235 0.30397955 1.396
-0.17505406 0.30397955 1.396
-0.17195353 0.30267304 1.3900001
-0.17033748 0.30397955 1.396
-0.16797921 0.30397955 1.396
-0.16562092 0.30397955 1.396
-0.16326264 0.30397955 1.396
-0.16090435 0.30397955 1.396
-0.15854606 0.30397955 1.396
-0.15618779 0.30397955 1.396
-0.1538295 0.30397955 1.396
-0.15212223 0.30528605 1.4020001
-0.14975381 0.30528605 1.4020001
-0.14738539 0.30528605 1.4020001
-0.14615476 0.30768129 1.4130001
-0.14437823 0.3089878 1.419
-0.14258145 0.3102943 1.4250001
-0.14017418 0.3102943 1.4250001
-0.1377669 0.3102943 1.4250001
-0.13535963 0.3102943 1.4250001
-0.13295235 0.3102943 1.4250001
-0.13054508 0.3102943 1.4250001
-0.12759827 0.3089878 1.419
-0.12520112 0.3089878 1.419
-0.12332325 0.3102943 1.4250001
-0.12142509 0.3116008 1.4310001
-0.12000564 0.31421381 1.4430001
-0.11805681 0.31552032 1.4490001
-0.11560899 0.31552032 1.4490001
-0.11316118 0.31552032 1.4490001
-0.1111718 0.31682682 1.455
-0.10826554 0.31552032 1.4490001
-0.10581773 0.31552032 1.4490001
-0.10379793 0.31682682 1.455
-0.10133998 0.31682682 1.455
-0.099289797 0.31813332 1.4610001
-0.097616948 0.32074633 1.473
-0.09558066 0.32227057 1.48
-0.093080468 0.32227057 1.48
-0.090947501 0.32357708 1.4860001
-0.088794261 0.32488358 1.4920001
-0.086273804 0.32488358 1.4920001
-0.08375334 0.32488358 1.4920001
-0.081232883 0.32488358 1.4920001
-0.078712426 0.32488358 1.4920001
-0.076191962 0.32488358 1.4920001
-0.074017152 0.32640785 1.4990001
-0.071484864 0.32640785 1.4990001
-0.069274575 0.32793209 1.506
-0.066730462 0.32793209 1.506
-0.064186357 0.32793209 1.506
-0.061642244 0.32793209 1.506
-0.059098136 0.32793209 1.506
-0.056779347 0.32923859 1.5120001
-0.054225098 0.32923859 1.5120001
-0.051910069 0.33076283 1.5190001
-0.049343996 0.33076283 1.5190001
-0.047178265 0.33359361 1.5320001
-0.044590235 0.33359361 1.5320001
-0.041810285 0.33206934 1.5250001
-0.039234079 0.33206934 1.5250001
-0.036657874 0.33206934 1.5250001
-0.033947576 0.33076283 1.5190001
-0.031381503 0.33076283 1.5190001
-0.028815433 0.33076283 1.5190001
-0.026128398 0.32923859 1.5120001
-0.023683295 0.33076283 1.5190001
-0.021117223 0.33076283 1.5190001
-0.018551152 0.33076283 1.5190001
-0.015985083 0.33076283 1.5190001
-0.013419011 0.33076283 1.5190001
-0.010895809 0.33206934 1.5250001
-0.0082868701 0.33076283 1.5190001
-0.005743396 0.33206934 1.5250001
-0.0031547288 0.33076283 1.5190001
-0.00058865821 0.33076283 1.5190001
0.001985223 0.33206934 1.5250001
0.0045614294 0.33206934 1.5250001
0.0071703987 0.33359361 1.5320001
0.0098030185 0.33511785 1.539
0.012402876 0.33511785 1.539
0.015002732 0.33511785 1.539
0.017602589 0.33511785 1.539
0.020202445 0.33511785 1.539
0.022698589 0.33359361 1.5320001
0.02528662 0.33359361 1.5320001
0.027874652 0.33359361 1.5320001
0.030323494 0.33206934 1.5250001
0.0328997 0.33206934 1.5250001
0.035475906 0.33206934 1.5250001
0.0379024 0.33076283 1.5190001
0.040468473 0.33076283 1.5190001
0.043034542 0.33076283 1.5190001
0.045600612 0.33076283 1.5190001
0.048166685 0.33076283 1.5190001
0.050732754 0.33076283 1.5190001
0.053298824 0.33076283 1.5190001
0.055864893 0.33076283 1.5190001
0.058430962 0.33076283 1.5190001
0.060997032 0.33076283 1.5190001
0.063563101 0.33076283 1.5190001
0.06612917 0.33076283 1.5190001
0.068695247 0.33076283 1.5190001
0.071261317 0.33076283 1.5190001
0.074119002 0.33206934 1.5250001
0.076695211 0.33206934 1.5250001
0.079271413 0.33206934 1.5250001
0.081847623 0.33206934 1.5250001
0.084423833 0.33206934 1.5250001
0.087000035 0.33206934 1.5250001
0.089576244 0.33206934 1.5250001
0.092152447 0.33206934 1.5250001
0.094355948 0.33076283 1.5190001
0.097304858 0.33206934 1.5250001
0.099488087 0.33076283 1.5190001
0.10205416 0.33076283 1.5190001
0.10413811 0.32923859 1.5120001
0.10669236 0.32923859 1.5120001
0.1092466 0.32923859 1.5120001
0.11180085 0.32923859 1.5120001
0.11435509 0.32923859 1.5120001
0.11690934 0.32923859 1.5120001
0.11946359 0.32923859 1.5120001
0.12201783 0.32923859 1.5120001
0.1251488 0.33076283 1.5190001
0.12771487 0.33076283 1.5190001
0.13028094 0.33076283 1.5190001
0.13284701 0.33076283 1.5190001
0.13541308 0.33076283 1.5190001
0.13797915 0.33076283 1.5190001
0.14054522 0.33076283 1.5190001
0.14311129 0.33076283 1.5190001
0.14567736 0.33076283 1.5190001
0.14824343 0.33076283 1.5190001
0.15011454 0.32923859 1.5120001
0.15206295 0.32793209 1.506
0.15388842 0.32640785 1.4990001
0.15642071 0.32640785 1.4990001
0.15821072 0.32488358 1.4920001
0.16008481 0.32357708 1.4860001
0.16259514 0.32357708 1.4860001
0.16510545 0.32357708 1.4860001
0.16761577 0.32357708 1.4860001
0.1701261 0.32357708 1.4860001
0.17263642 0.32357708 1.4860001
0.17514674 0.32357708 1.4860001
0.17765707 0.32357708 1.4860001
0.18700868 0.31813332 1.4610001
0.18714236 0.31421381 1.4430001
0.2796056 0.28655949 1.3160001
0.28182873 0.28655949 1.3160001
0.28297263 0.28547075 1.3110001
0.28518733 0.28547075 1.3110001
0.287402 0.28547075 1.3110001
0.2896167 0.28547075 1.3110001
0.2918314 0.28547075 1.3110001
0.2940461 0.28547075 1.3110001
0.29626077 0.28547075 1.3110001
0.29847547 0.28547075 1.3110001
0.30069017 0.28547075 1.3110001
0.30290487 0.28547075 1.3110001
0.30511954 0.28547075 1.3110001
0.30733424 0.28547075 1.3110001
-0.22807282 0.29558894 1.3470001
-0.22579731 0.29558894 1.3470001
-0.22269212 0.29449174 1.342
-0.22042505 0.29449174 1.342
-0.21897079 0.29558894 1.3470001
-0.21669528 0.29558894 1.3470001
-0.21362387 0.29449174 1.342
-0.21214427 0.29558894 1.3470001
-0.21064778 0.29668617 1.3520001
-0.21005909 0.29910004 1.363
-0.20851868 0.30019724 1.368
-0.20711212 0.30151388 1.3740001
-0.20479101 0.30151388 1.3740001
-0.20158574 0.30019724 1.368
-0.17899798 0.30502498 1.3900001
-0.17664982 0.30502498 1.3900001
-0.17430168 0.30502498 1.3900001
-0.17195353 0.30502498 1.3900001
-0.16960539 0.30502498 1.3900001
-0.16725723 0.30502498 1.3900001
-0.16490908 0.30502498 1.3900001
-0.16326264 0.30634165 1.396
-0.16090435 0.30634165 1.396
-0.15854606 0.30634165 1.396
-0.15551649 0.30502498 1.3900001
-0.1538295 0.30634165 1.396
-0.15147121 0.30634165 1.396
-0.14911292 0.30634165 1.396
-0.14675464 0.30634165 1.396
-0.14439636 0.30634165 1.396
-0.14264855 0.30765828 1.4020001
-0.14078042 0.30875549 1.4070001
-0.13899375 0.31007215 1.4130001
-0.13660675 0.31007215 1.4130001
-0.13478968 0.31138879 1.419
-0.13183275 0.31007215 1.4130001
-0.12944575 0.31007215 1.4130001
-0.12705874 0.31007215 1.4130001
-0.12467173 0.31007215 1.4130001
-0.12228473 0.31007215 1.4130001
-0.12040684 0.31138879 1.419
-0.1185087 0.31270546 1.4250001
-0.11659028 0.31402212 1.4310001
-0.11465158 0.31533879 1.437
-0.1126926 0.31665543 1.4430001
-0.11071336 0.31797209 1.4490001
-0.10781723 0.31665543 1.4430001
-0.10537955 0.31665543 1.4430001
-0.10294187 0.31665543 1.4430001
-0.10092209 0.31797209 1.4490001
-0.098882027 0.31928873 1.455
-0.097219326 0.32192203 1.4670001
-0.095128588 0.3232387 1.473
-0.093080468 0.3247748 1.48
-0.090580285 0.3247748 1.48
-0.088080093 0.3247748 1.48
-0.085926861 0.32609144 1.4860001
-0.083416536 0.32609144 1.4860001
-0.080906212 0.32609144 1.4860001
-0.078395888 0.32609144 1.4860001
-0.076191962 0.32740811 1.4920001
-0.073671505 0.32740811 1.4920001
-0.071151048 0.32740811 1.4920001
-0.068952583 0.32894421 1.4990001
-0.066420294 0.32894421 1.4990001
-0.063888013 0.32894421 1.4990001
-0.061355729 0.32894421 1.4990001
-0.059098136 0.33048028 1.506
-0.056554027 0.33048028 1.506
-0.054009918 0.33048028 1.506
-0.051670853 0.33179694 1.5120001
-0.049116608 0.33179694 1.5120001
-0.046777926 0.33333305 1.5190001
-0.044386491 0.33464971 1.5250001
-0.041810285 0.33464971 1.5250001
-0.039234079 0.33464971 1.5250001
-0.036513645 0.33333305 1.5190001
-0.033947576 0.33333305 1.5190001
-0.031236889 0.33179694 1.5120001
-0.028682644 0.33179694 1.5120001
-0.026128398 0.33179694 1.5120001
-0.023574153 0.33179694 1.5120001
-0.021019908 0.33179694 1.5120001
-0.018465662 0.33179694 1.5120001
-0.015911417 0.33179694 1.5120001
-0.013357172 0.33179694 1.5120001
-0.010802926 0.33179694 1.5120001
-0.0082486812 0.33179694 1.5120001
-0.0056944364 0.33179694 1.5120001
-0.0031401908 0.33179694 1.5120001
-0.0005859455 0.33179694 1.5120001
0.0019774123 0.33333305 1.5190001
0.0045434833 0.33333305 1.5190001
0.0071376362 0.33464971 1.5250001
0.0097584305 0.33618581 1.5320001
0.012346462 0.33618581 1.5320001
0.014934494 0.33618581 1.5320001
0.017522527 0.33618581 1.5320001
0.020110557 0.33618581 1.5320001
0.022594875 0.33464971 1.5250001
0.025171081 0.33464971 1.5250001
0.027638117 0.33333305 1.5190001
0.03020419 0.33333305 1.5190001
0.032770261 0.33333305 1.5190001
0.035336331 0.33333305 1.5190001
0.0379024 0.33333305 1.5190001
0.040281981 0.33179694 1.5120001
0.042836227 0.33179694 1.5120001
0.045390472 0.33179694 1.5120001
0.047944717 0.33179694 1.5120001
0.050498962 0.33179694 1.5120001
0.053053208 0.33179694 1.5120001
