# .PCD v0.7 - Point Cloud Data file format
VERSION 0.7
FIELDS x y z
SIZE 4 4 4
TYPE F F F
COUNT 1 1 1
WIDTH 1494
HEIGHT 1
VIEWPOINT 0 0 0 1 0 0 0
POINTS 1494
DATA ascii
-0.27092025 0.17297387 1.904
-0.2677038 0.17297387 1.904
-0.26448736 0.17297387 1.904
-0.26127088 0.17297387 1.904
-0.25669909 0.17206539 1.8940001
-0.25483796 0.17297387 1.904
-0.25162151 0.17297387 1.904
-0.2471004 0.17206539 1.8940001
-0.24390084 0.17206539 1.8940001
-0.24197215 0.17297387 1.904
-0.23750171 0.17206539 1.8940001
-0.23553923 0.17297387 1.904
-0.23110259 0.17206539 1.8940001
-0.22790302 0.17206539 1.8940001
-0.22588986 0.17297387 1.904
-0.2226734 0.17297387 1.904
-0.21945694 0.17297387 1.904
-0.21624048 0.17297387 1.904
-0.21302404 0.17297387 1.904
-0.20980757 0.17297387 1.904
-0.20659111 0.17297387 1.904
-0.20337465 0.17297387 1.904
-0.20015819 0.17297387 1.904
-0.19694175 0.17297387 1.904
-0.19372529 0.17297387 1.904
-0.19050883 0.17297387 1.904
-0.18729237 0.17297387 1.904
-0.18407592 0.17297387 1.904
-0.18190435 0.17397319 1.9150001
-0.1786693 0.17397319 1.9150001
-0.17543426 0.17397319 1.9150001
-0.17309843 0.17488167 1.9250001
-0.16984649 0.17488167 1.9250001
-0.16659456 0.17488167 1.9250001
-0.16334262 0.17488167 1.9250001
-0.1600907 0.17488167 1.9250001
-0.15683876 0.17488167 1.9250001
-0.15358683 0.17488167 1.9250001
-0.15033489 0.17488167 1.9250001
-0.14708297 0.17488167 1.9250001
-0.14383103 0.17488167 1.9250001
-0.1405791 0.17488167 1.9250001
-0.13732716 0.17488167 1.9250001
-0.13407524 0.17488167 1.9250001
-0.1308233 0.17488167 1.9250001
-0.12757137 0.17488167 1.9250001
-0.12431943 0.17488167 1.9250001
-0.1210675 0.17488167 1.9250001
-0.11781557 0.17488167 1.9250001
-0.11456364 0.17488167 1.9250001
-0.1113117 0.17488167 1.9250001
-0.10805978 0.17488167 1.9250001
-0.10480785 0.17488167 1.9250001
-0.10155591 0.17488167 1.9250001
-0.098865718 0.17588098 1.9360001
-0.095595203 0.17588098 1.9360001
-0.092324689 0.17588098 1.9360001
-0.089560159 0.1768803 1.9470001
-0.086271062 0.1768803 1.9470001
-0.082981966 0.1768803 1.9470001
-0.07969287 0.1768803 1.9470001
-0.076403767 0.1768803 1.9470001
-0.073114671 0.1768803 1.9470001
-0.069825575 0.1768803 1.9470001
-0.066536479 0.1768803 1.9470001
-0.063247383 0.1768803 1.9470001
-0.060297027 0.17787963 1.9580001
-0.056989349 0.17787963 1.9580001
-0.053681664 0.17787963 1.9580001
-0.050373986 0.17787963 1.9580001
-0.046801887 0.1768803 1.9470001
-0.043758623 0.17787963 1.9580001
-0.040450945 0.17787963 1.9580001
-0.037143264 0.17787963 1.9580001
-0.033835586 0.17787963 1.9580001
-0.030527905 0.17787963 1.9580001
-0.027220225 0.17787963 1.9580001
-0.023912543 0.17787963 1.9580001
-0.020604864 0.17787963 1.9580001
-0.017297184 0.17787963 1.9580001
-0.013989503 0.17787963 1.9580001
-0.010681825 0.17787963 1.9580001
-0.0073741442 0.17787963 1.9580001
-0.0041121547 0.17987828 1.9800001
-0.00076730957 0.17987828 1.9800001
0.0025775356 0.17987828 1.9800001
0.005958274 0.18096845 1.9920001
0.0093233911 0.18096845 1.9920001
0.012758575 0.18196777 2.003
0.016142275 0.18196777 2.003
0.019525973 0.18196777 2.003
0.022909673 0.18196777 2.003
0.026293373 0.18196777 2.003
0.029677071 0.18196777 2.003
0.03306077 0.18196777 2.003
0.03644447 0.18196777 2.003
0.039828166 0.18196777 2.003
0.043211866 0.18196777 2.003
0.046595566 0.18196777 2.003
0.049979266 0.18196777 2.003
0.053362966 0.18196777 2.003
0.056746669 0.18196777 2.003
0.060130369 0.18196777 2.003
0.063514069 0.18196777 2.003
0.066897765 0.18196777 2.003
0.070281468 0.18196777 2.003
0.074106492 0.18305795 2.0150001
0.077510461 0.18305795 2.0150001
0.08091443 0.18305795 2.0150001
0.084318407 0.18305795 2.0150001
0.087722376 0.18305795 2.0150001
0.091126345 0.18305795 2.0150001
0.094530322 0.18305795 2.0150001
0.097934291 0.18305795 2.0150001
0.10133826 0.18305795 2.0150001
0.10474223 0.18305795 2.0150001
0.10814621 0.18305795 2.0150001
0.1122145 0.18414812 2.0270002
0.11563874 0.18414812 2.0270002
0.11906298 0.18414812 2.0270002
0.12393749 0.18632846 2.0510001
0.12665686 0.18523829 2.039
0.13010138 0.18523829 2.039
0.13354589 0.18523829 2.039
0.13699041 0.18523829 2.039
0.14043492 0.18523829 2.039
0.14472622 0.18632846 2.0510001
0.14819099 0.18632846 2.0510001
0.15165578 0.18632846 2.0510001
0.15512057 0.18632846 2.0510001
0.1576575 0.18523829 2.039
0.16205014 0.18632846 2.0510001
0.16551493 0.18632846 2.0510001
0.16897972 0.18632846 2.0510001
0.17244451 0.18632846 2.0510001
0.17590928 0.18632846 2.0510001
0.18042356 0.18741862 2.0630002
0.18390863 0.18741862 2.0630002
0.18857454 0.18859966 2.0760002
0.19208156 0.18859966 2.0760002
0.19671914 0.18968982 2.0880001
0.20024642 0.18968982 2.0880001
0.20377372 0.18968982 2.0880001
-0.59755373 0.16027868 1.7320001
-0.5977177 0.16111153 1.7410001
-0.59170192 0.16027868 1.7320001
-0.58877605 0.16027868 1.7320001
-0.58585012 0.16027868 1.7320001
-0.5859533 0.16111153 1.7410001
-0.57999837 0.16027868 1.7320001
-0.57707244 0.16027868 1.7320001
-0.57414657 0.16027868 1.7320001
-0.5712207 0.16027868 1.7320001
-0.56829476 0.16027868 1.7320001
-0.56536889 0.16027868 1.7320001
-0.56536561 0.16111153 1.7410001
-0.56242448 0.16111153 1.7410001
-0.55948341 0.16111153 1.7410001
-0.55941933 0.16194439 1.7500001
-0.556463 0.16194439 1.7500001
-0.55350673 0.16194439 1.7500001
-0.55338186 0.16277726 1.7590001
-0.55041033 0.16277726 1.7590001
-0.5446378 0.16194439 1.7500001
-0.54168153 0.16194439 1.7500001
-0.5387252 0.16194439 1.7500001
-0.53852433 0.16277726 1.7590001
-0.5355528 0.16277726 1.7590001
-0.5368551 0.16879232 1.8240001
-0.52182597 0.16694152 1.8040001
-0.51877844 0.16694152 1.8040001
-0.51858974 0.16786693 1.8140001
-0.51836723 0.16879232 1.8240001
-0.51782846 0.16962518 1.8330001
-0.51473194 0.16962518 1.8330001
-0.51163542 0.16962518 1.8330001
-0.5085389 0.16962518 1.8330001
-0.50544244 0.16962518 1.8330001
-0.50234592 0.16962518 1.8330001
-0.49679807 0.16879232 1.8240001
-0.49371678 0.16879232 1.8240001
-0.49063545 0.16879232 1.8240001
-0.48755413 0.16879232 1.8240001
-0.48447284 0.16879232 1.8240001
-0.47875229 0.16786693 1.8140001
-0.47568786 0.16786693 1.8140001
-0.47522891 0.16879232 1.8240001
-0.47214758 0.16879232 1.8240001
-0.46906626 0.16879232 1.8240001
-0.46598497 0.16879232 1.8240001
-0.46290365 0.16879232 1.8240001
-0.45982233 0.16879232 1.8240001
-0.45899469 0.16962518 1.8330001
-0.45589817 0.16962518 1.8330001
-0.45280164 0.16962518 1.8330001
-0.44970512 0.16962518 1.8330001
-0.4466086 0.16962518 1.8330001
-0.44351211 0.16962518 1.8330001
-0.44041556 0.16962518 1.8330001
-0.43731904 0.16962518 1.8330001
-0.43422252 0.16962518 1.8330001
-0.431126 0.16962518 1.8330001
-0.42802951 0.16962518 1.8330001
-0.42725122 0.17055057 1.8430001
-0.4241378 0.17055057 1.8430001
-0.42102441 0.17055057 1.8430001
-0.41791099 0.17055057 1.8430001
-0.41479757 0.17055057 1.8430001
-0.41168419 0.17055057 1.8430001
-0.40635389 0.16962518 1.8330001
-0.40545735 0.17055057 1.8430001
-0.40234396 0.17055057 1.8430001
-0.39706433 0.16962518 1.8330001
-0.39611712 0.17055057 1.8430001
-0.39300373 0.17055057 1.8430001
-0.38989031 0.17055057 1.8430001
-0.38677689 0.17055057 1.8430001
-0.38158175 0.16962518 1.8330001
-0.38055009 0.17055057 1.8430001
-0.37743667 0.17055057 1.8430001
-0.37432328 0.17055057 1.8430001
-0.3691957 0.16962518 1.8330001
-0.36809644 0.17055057 1.8430001
-0.36696342 0.17147598 1.853
-0.36186963 0.17055057 1.8430001
-0.36070281 0.17147598 1.853
-0.35757253 0.17147598 1.853
-0.35444221 0.17147598 1.853
-0.35131192 0.17147598 1.853
-0.34818161 0.17147598 1.853
-0.34505132 0.17147598 1.853
-0.34376624 0.17240137 1.863
-0.34061906 0.17240137 1.863
-0.3356604 0.17147598 1.853
-0.33432466 0.17240137 1.863
-0.33117747 0.17240137 1.863
-0.32803026 0.17240137 1.863
-0.32488307 0.17240137 1.863
-0.32173589 0.17240137 1.863
-0.31858867 0.17240137 1.863
-0.3137483 0.17147598 1.853
-0.3139706 0.17332678 1.8730001
-0.30914709 0.17240137 1.863
-0.30764243 0.17332678 1.8730001
-0.30447832 0.17332678 1.8730001
-0.30131423 0.17332678 1.8730001
-0.29815015 0.17332678 1.8730001
-0.29498607 0.17332678 1.8730001
-0.29182199 0.17332678 1.8730001
-0.28865787 0.17332678 1.8730001
-0.28549379 0.17332678 1.8730001
-0.28232971 0.17332678 1.8730001
-0.27916563 0.17332678 1.8730001
-0.27747512 0.17425215 1.8830001
-0.27589649 0.17527011 1.8940001
-0.27269691 0.17527011 1.8940001
-0.26949736 0.17527011 1.8940001
-0.26629779 0.17527011 1.8940001
-0.26309821 0.17527011 1.8940001
-0.25989866 0.17527011 1.8940001
-0.25520825 0.17425215 1.8830001
-0.25349954 0.17527011 1.8940001
-0.25029996 0.17527011 1.8940001
-0.2456653 0.17425215 1.8830001
-0.24248432 0.17425215 1.8830001
-0.23930334 0.17425215 1.8830001
-0.23612235 0.17425215 1.8830001
-0.23170429 0.17332678 1.8730001
-0.22976039 0.17425215 1.8830001
-0.22657941 0.17425215 1.8830001
-0.22470346 0.17527011 1.8940001
-0.2215039 0.17527011 1.8940001
-0.21830432 0.17527011 1.8940001
-0.21510476 0.17527011 1.8940001
-0.2119052 0.17527011 1.8940001
-0.20980757 0.1761955 1.904
-0.20659111 0.1761955 1.904
-0.20337465 0.1761955 1.904
-0.19910695 0.17527011 1.8940001
-0.19590738 0.17527011 1.8940001
-0.19372529 0.1761955 1.904
-0.19050883 0.1761955 1.904
-0.18729237 0.1761955 1.904
-0.18407592 0.1761955 1.904
-0.16708602 0.16277726 1.7590001
-0.16411451 0.16277726 1.7590001
-0.161143 0.16277726 1.7590001
-0.17219922 0.17721343 1.9150001
-0.16984649 0.17813884 1.9250001
-0.16572914 0.17721343 1.9150001
-0.16249411 0.17721343 1.9150001
-0.15925907 0.17721343 1.9150001
-0.15683876 0.17813884 1.9250001
-0.15358683 0.17813884 1.9250001
-0.14955394 0.17721343 1.9150001
-0.1463189 0.17721343 1.9150001
-0.14308387 0.17721343 1.9150001
-0.13984883 0.17721343 1.9150001
-0.13661379 0.17721343 1.9150001
-0.13337874 0.17721343 1.9150001
-0.1301437 0.17721343 1.9150001
-0.12690866 0.17721343 1.9150001
-0.12367363 0.17721343 1.9150001
-0.12043859 0.17721343 1.9150001
-0.11720355 0.17721343 1.9150001
-0.11396851 0.17721343 1.9150001
-0.11073347 0.17721343 1.9150001
-0.10805978 0.17813884 1.9250001
-0.10480785 0.17813884 1.9250001
-0.10102835 0.17721343 1.9150001
-0.098303981 0.17813884 1.9250001
-0.095052049 0.17813884 1.9250001
-0.091800116 0.17813884 1.9250001
-0.089054167 0.17915677 1.9360001
-0.085783653 0.17915677 1.9360001
-0.082513139 0.17915677 1.9360001
-0.079242624 0.17915677 1.9360001
-0.076403767 0.18017469 1.9470001
-0.073114671 0.18017469 1.9470001
-0.069825575 0.18017469 1.9470001
-0.066536479 0.18017469 1.9470001
-0.063247383 0.18017469 1.9470001
-0.059958283 0.18017469 1.9470001
-0.056669183 0.18017469 1.9470001
-0.053380083 0.18017469 1.9470001
-0.049807984 0.17915677 1.9360001
-0.046801887 0.18017469 1.9470001
-0.043512791 0.18017469 1.9470001
-0.040223692 0.18017469 1.9470001
-0.036934596 0.18017469 1.9470001
-0.033645496 0.18017469 1.9470001
-0.0303564 0.18017469 1.9470001
-0.027067302 0.18017469 1.9470001
-0.023778204 0.18017469 1.9470001
-0.020489106 0.18017469 1.9470001
-0.017297184 0.18119264 1.9580001
-0.013910911 0.18017469 1.9470001
-0.010681825 0.18119264 1.9580001
-0.0073327166 0.18017469 1.9470001
-0.0040893094 0.18221058 1.9690001
-0.00076304673 0.18221058 1.9690001
0.0025632158 0.18221058 1.9690001
0.0059223804 0.18322851 1.9800001
0.0092672259 0.18322851 1.9800001
0.012688508 0.18433899 1.9920001
0.016053624 0.18433899 1.9920001
0.019418743 0.18433899 1.9920001
0.022783859 0.18433899 1.9920001
0.026148975 0.18433899 1.9920001
0.029514091 0.18433899 1.9920001
0.032879207 0.18433899 1.9920001
0.036244325 0.18433899 1.9920001
0.03960944 0.18433899 1.9920001
0.042974558 0.18433899 1.9920001
0.046339676 0.18433899 1.9920001
0.049979266 0.18535691 2.003
0.053069908 0.18433899 1.9920001
0.056746669 0.18535691 2.003
0.059800144 0.18433899 1.9920001
0.063514069 0.18535691 2.003
0.066530377 0.18433899 1.9920001
0.070281468 0.18535691 2.003
0.073665164 0.18535691 2.003
0.07704886 0.18535691 2.003
0.080432564 0.18535691 2.003
0.08381626 0.18535691 2.003
0.087199964 0.18535691 2.003
0.091126345 0.18646739 2.0150001
0.093967363 0.18535691 2.003
0.097351059 0.18535691 2.003
0.10073476 0.18535691 2.003
0.10411846 0.18535691 2.003
0.10814621 0.18646739 2.0150001
0.11155017 0.18646739 2.0150001
0.11495414 0.18646739 2.0150001
0.11835811 0.18646739 2.0150001
0.12248722 0.18757787 2.0270002
0.12516606 0.18646739 2.0150001
0.12933572 0.18757787 2.0270002
0.13275996 0.18757787 2.0270002
0.1361842 0.18757787 2.0270002
0.13960844 0.18757787 2.0270002
0.14303268 0.18757787 2.0270002
0.14645693 0.18757787 2.0270002
0.15076847 0.18868835 2.039
0.15421298 0.18868835 2.039
0.1576575 0.18868835 2.039
0.16110201 0.18868835 2.039
0.16454653 0.18868835 2.039
0.16897972 0.18979882 2.0510001
0.17244451 0.18979882 2.0510001
0.17590928 0.18979882 2.0510001
0.17937407 0.18979882 2.0510001
0.18390863 0.1909093 2.0630002
0.18739368 0.1909093 2.0630002
0.19208156 0.19211233 2.0760002
0.19671914 0.19322279 2.0880001
-0.59748298 0.16160734 1.715
-0.59458578 0.16160734 1.715
-0.59755373 0.16320929 1.7320001
-0.59462786 0.16320929 1.7320001
-0.59170192 0.16320929 1.7320001
-0.58877605 0.16320929 1.7320001
-0.58585012 0.16320929 1.7320001
-0.5798952 0.16236119 1.723
-0.57698452 0.16236119 1.723
-0.57707244 0.16320929 1.7320001
-0.57116312 0.16236119 1.723
-0.56825244 0.16236119 1.723
-0.56534177 0.16236119 1.723
-0.56243104 0.16236119 1.723
-0.56244296 0.16320929 1.7320001
-0.55951709 0.16320929 1.7320001
-0.55659121 0.16320929 1.7320001
-0.55654234 0.16405737 1.7410001
-0.55360121 0.16405737 1.7410001
-0.55350673 0.16490546 1.7500001
-0.5505504 0.16490546 1.7500001
-0.55041033 0.16575354 1.7590001
-0.5446378 0.16490546 1.7500001
-0.54168153 0.16490546 1.7500001
-0.5387252 0.16490546 1.7500001
-0.53852433 0.16575354 1.7590001
-0.51836723 0.17187861 1.8240001
-0.51782846 0.17272668 1.8330001
-0.51473194 0.17272668 1.8330001
-0.51163542 0.17272668 1.8330001
-0.5085389 0.17272668 1.8330001
-0.50544244 0.17272668 1.8330001
-0.50234592 0.17272668 1.8330001
-0.49679807 0.17187861 1.8240001
-0.49100995 0.17093629 1.8140001
-0.49063545 0.17187861 1.8240001
-0.4848811 0.17093629 1.8140001
-0.48181671 0.17093629 1.8140001
-0.47611308 0.16999397 1.8040001
-0.47306556 0.16999397 1.8040001
-0.47001803 0.16999397 1.8040001
-0.46955901 0.17093629 1.8140001
-0.46906626 0.17187861 1.8240001
-0.46598497 0.17187861 1.8240001
-0.46290365 0.17187861 1.8240001
-0.45730135 0.17093629 1.8140001
-0.45674103 0.17187861 1.8240001
-0.45589817 0.17272668 1.8330001
-0.45280164 0.17272668 1.8330001
-0.44970512 0.17272668 1.8330001
-0.4466086 0.17272668 1.8330001
-0.44351211 0.17272668 1.8330001
-0.44041556 0.17272668 1.8330001
-0.43731904 0.17272668 1.8330001
-0.43422252 0.17272668 1.8330001
-0.431126 0.17272668 1.8330001
-0.42802951 0.17272668 1.8330001
-0.42493299 0.17272668 1.8330001
-0.42183647 0.17272668 1.8330001
-0.41873994 0.17272668 1.8330001
-0.41564342 0.17272668 1.8330001
-0.4125469 0.17272668 1.8330001
-0.40945041 0.17272668 1.8330001
-0.40635389 0.17272668 1.8330001
-0.40325737 0.17272668 1.8330001
-0.40016085 0.17272668 1.8330001
-0.39706433 0.17272668 1.8330001
-0.39396781 0.17272668 1.8330001
-0.39087132 0.17272668 1.8330001
-0.3877748 0.17272668 1.8330001
-0.38467827 0.17272668 1.8330001
-0.38158175 0.17272668 1.8330001
-0.37848523 0.17272668 1.8330001
-0.37538874 0.17272668 1.8330001
-0.37432328 0.173669 1.8430001
-0.3691957 0.17272668 1.8330001
-0.36609918 0.17272668 1.8330001
-0.36498305 0.173669 1.8430001
-0.36186963 0.173669 1.8430001
-0.35875621 0.173669 1.8430001
-0.35564283 0.173669 1.8430001
-0.35252941 0.173669 1.8430001
-0.34752008 0.17272668 1.8330001
-0.34442356 0.17272668 1.8330001
-0.34505132 0.17461132 1.853
-0.341921 0.17461132 1.853
-0.33879071 0.17461132 1.853
-0.3356604 0.17461132 1.853
-0.33253011 0.17461132 1.853
-0.32939979 0.17461132 1.853
-0.32626951 0.17461132 1.853
-0.32313919 0.17461132 1.853
-0.32173589 0.17555363 1.863
-0.31687859 0.17461132 1.853
-0.31544149 0.17555363 1.863
-0.3122943 0.17555363 1.863
-0.30914709 0.17555363 1.863
-0.3059999 0.17555363 1.863
-0.30285269 0.17555363 1.863
-0.29970551 0.17555363 1.863
-0.29655832 0.17555363 1.863
-0.29498607 0.17649595 1.8730001
-0.29026392 0.17555363 1.863
-0.28711674 0.17555363 1.863
-0.28549379 0.17649595 1.8730001
-0.28232971 0.17649595 1.8730001
-0.27916563 0.17649595 1.8730001
-0.27600154 0.17649595 1.8730001
-0.27283743 0.17649595 1.8730001
-0.26823357 0.17555363 1.863
-0.26508635 0.17555363 1.863
-0.2647512 0.17743826 1.8830001
-0.26157022 0.17743826 1.8830001
-0.25701702 0.17649595 1.8730001
-0.2538529 0.17649595 1.8730001
-0.25068882 0.17649595 1.8730001
-0.24752474 0.17649595 1.8730001
-0.24436066 0.17649595 1.8730001
-0.24119656 0.17649595 1.8730001
-0.23803248 0.17649595 1.8730001
-0.23486839 0.17649595 1.8730001
-0.23170429 0.17649595 1.8730001
-0.22854021 0.17649595 1.8730001
-0.22537611 0.17649595 1.8730001
-0.22339843 0.17743826 1.8830001
-0.22021744 0.17743826 1.8830001
-0.21703646 0.17743826 1.8830001
-0.21385548 0.17743826 1.8830001
-0.21067449 0.17743826 1.8830001
-0.20870563 0.17847483 1.8940001
-0.20550607 0.17847483 1.8940001
-0.20230651 0.17847483 1.8940001
-0.19910695 0.17847483 1.8940001
-0.19590738 0.17847483 1.8940001
-0.19270782 0.17847483 1.8940001
-0.18950826 0.17847483 1.8940001
-0.18630868 0.17847483 1.8940001
-0.18310912 0.17847483 1.8940001
-0.16708602 0.16575354 1.7590001
-0.16327481 0.16490546 1.7500001
-0.16031851 0.16490546 1.7500001
-0.17219922 0.18045369 1.9150001
-0.16896418 0.18045369 1.9150001
-0.16572914 0.18045369 1.9150001
-0.16249411 0.18045369 1.9150001
-0.15925907 0.18045369 1.9150001
-0.15602402 0.18045369 1.9150001
-0.15278898 0.18045369 1.9150001
-0.14955394 0.18045369 1.9150001
-0.14547843 0.17941715 1.904
-0.14226197 0.17941715 1.904
-0.13904552 0.17941715 1.904
-0.13582906 0.17941715 1.904
-0.13337874 0.18045369 1.9150001
-0.12939614 0.17941715 1.904
-0.1261797 0.17941715 1.904
-0.12296323 0.17941715 1.904
-0.12043859 0.18045369 1.9150001
-0.11720355 0.18045369 1.9150001
-0.11396851 0.18045369 1.9150001
-0.11073347 0.18045369 1.9150001
-0.10749842 0.18045369 1.9150001
-0.10426338 0.18045369 1.9150001
-0.10102835 0.18045369 1.9150001
-0.097793303 0.18045369 1.9150001
-0.095052049 0.18139601 1.9250001
-0.091800116 0.18139601 1.9250001
-0.088548183 0.18139601 1.9250001
-0.085296251 0.18139601 1.9250001
-0.082044318 0.18139601 1.9250001
-0.078792386 0.18139601 1.9250001
-0.07597211 0.18243255 1.9360001
-0.071912989 0.18045369 1.9150001
-0.068677947 0.18045369 1.9150001
-0.066160567 0.18243255 1.9360001
-0.062890053 0.18243255 1.9360001
-0.059619535 0.18243255 1.9360001
-0.056028854 0.18139601 1.9250001
-0.053078499 0.18243255 1.9360001
-0.050090984 0.18346909 1.9470001
-0.046801887 0.18346909 1.9470001
-0.043266956 0.18243255 1.9360001
-0.039996441 0.18243255 1.9360001
-0.036725923 0.18243255 1.9360001
-0.033455409 0.18243255 1.9360001
-0.0303564 0.18346909 1.9470001
-0.026914379 0.18243255 1.9360001
-0.023778204 0.18346909 1.9470001
-0.020489106 0.18346909 1.9470001
-0.017200008 0.18346909 1.9470001
-0.013910911 0.18346909 1.9470001
-0.010621814 0.18346909 1.9470001
-0.0073327166 0.18346909 1.9470001
-0.004066464 0.18450566 1.9580001
-0.00075878395 0.18450566 1.9580001
0.002548896 0.18450566 1.9580001
0.0058894781 0.1855422 1.9690001
0.009164256 0.18450566 1.9580001
0.012542004 0.1855422 1.9690001
0.015956916 0.18657874 1.9800001
0.019418743 0.18770953 1.9920001
0.022646606 0.18657874 1.9800001
0.026148975 0.18770953 1.9920001
0.029514091 0.18770953 1.9920001
0.032681141 0.18657874 1.9800001
0.036025986 0.18657874 1.9800001
0.039370831 0.18657874 1.9800001
0.042974558 0.18770953 1.9920001
0.046060521 0.18657874 1.9800001
0.04970479 0.18770953 1.9920001
0.053069908 0.18770953 1.9920001
0.05643503 0.18770953 1.9920001
0.059800144 0.18770953 1.9920001
0.063165262 0.18770953 1.9920001
0.066897765 0.18874606 2.003
0.069895498 0.18770953 1.9920001
0.073665164 0.18874606 2.003
0.07704886 0.18874606 2.003
0.080432564 0.18874606 2.003
0.08381626 0.18874606 2.003
0.087199964 0.18874606 2.003
0.09058366 0.18874606 2.003
0.093451314 0.18770953 1.9920001
0.097351059 0.18874606 2.003
0.10018155 0.18770953 1.9920001
0.10411846 0.18874606 2.003
0.10750216 0.18874606 2.003
0.11088585 0.18874606 2.003
0.11495414 0.18987685 2.0150001
0.11835811 0.18987685 2.0150001
0.12176209 0.18987685 2.0150001
0.12516606 0.18987685 2.0150001
0.12933572 0.19100763 2.0270002
0.13275996 0.19100763 2.0270002
0.13537797 0.18987685 2.0150001
0.13878195 0.18987685 2.0150001
0.14303268 0.19100763 2.0270002
0.14645693 0.19100763 2.0270002
0.14988117 0.19100763 2.0270002
0.15421298 0.19213842 2.039
0.1576575 0.19213842 2.039
0.16110201 0.19213842 2.039
0.16454653 0.19213842 2.039
0.16799104 0.19213842 2.039
0.17244451 0.19326919 2.0510001
0.17590928 0.19326919 2.0510001
0.17937407 0.19326919 2.0510001
0.18390863 0.19439997 2.0630002
0.18739368 0.19439997 2.0630002
0.19208156 0.19562499 2.0760002
0.19671914 0.19675577 2.0880001
-0.59722942 0.16364588 1.7060001
-0.59434748 0.16364588 1.7060001
-0.59146547 0.16364588 1.7060001
-0.58858353 0.16364588 1.7060001
-0.57735354 0.16211109 1.6900001
-0.57449859 0.16211109 1.6900001
-0.57720274 0.16450919 1.715
-0.57430559 0.16450919 1.715
-0.57407379 0.16527657 1.723
-0.57116312 0.16527657 1.723
-0.56825244 0.16527657 1.723
-0.56534177 0.16527657 1.723
-0.56243104 0.16527657 1.723
-0.55952036 0.16527657 1.723
-0.55660969 0.16527657 1.723
-0.55369896 0.16527657 1.723
-0.55078828 0.16527657 1.723
-0.5418368 0.16700321 1.7410001
-0.50916219 0.16786651 1.7500001
-0.51163542 0.17582819 1.8330001
-0.5085389 0.17582819 1.8330001
-0.50544244 0.17582819 1.8330001
-0.49987939 0.17496487 1.8240001
-0.49407437 0.17400564 1.8140001
-0.49100995 0.17400564 1.8140001
-0.48794553 0.17400564 1.8140001
-0.4848811 0.17400564 1.8140001
-0.47916061 0.1730464 1.8040001
-0.47373781 0.17218308 1.7950001
-0.47070548 0.17218308 1.7950001
-0.46767315 0.17218308 1.7950001
-0.4669705 0.1730464 1.8040001
-0.46392298 0.1730464 1.8040001
-0.46087545 0.1730464 1.8040001
-0.45782793 0.1730464 1.8040001
-0.45982233 0.17496487 1.8240001
-0.45674103 0.17496487 1.8240001
-0.45365971 0.17496487 1.8240001
-0.45057839 0.17496487 1.8240001
-0.4474971 0.17496487 1.8240001
-0.4466086 0.17582819 1.8330001
-0.44351211 0.17582819 1.8330001
-0.44041556 0.17582819 1.8330001
-0.43731904 0.17582819 1.8330001
-0.43209049 0.17496487 1.8240001
-0.4290092 0.17496487 1.8240001
-0.42592788 0.17496487 1.8240001
-0.42284656 0.17496487 1.8240001
-0.41976526 0.17496487 1.8240001
-0.41668394 0.17496487 1.8240001
-0.41360262 0.17496487 1.8240001
-0.41052133 0.17496487 1.8240001
-0.40744001 0.17496487 1.8240001
-0.40435869 0.17496487 1.8240001
-0.40127739 0.17496487 1.8240001
-0.39819607 0.17496487 1.8240001
-0.39511475 0.17496487 1.8240001
-0.39203346 0.17496487 1.8240001
-0.39087132 0.17582819 1.8330001
-0.3877748 0.17582819 1.8330001
-0.38278952 0.17496487 1.8240001
-0.3797082 0.17496487 1.8240001
-0.37848523 0.17582819 1.8330001
-0.37538874 0.17582819 1.8330001
-0.37229222 0.17582819 1.8330001
-0.3691957 0.17582819 1.8330001
-0.36609918 0.17582819 1.8330001
-0.36498305 0.17678742 1.8430001
-0.35990614 0.17582819 1.8330001
-0.35875621 0.17678742 1.8430001
-0.35564283 0.17678742 1.8430001
-0.3506166 0.17582819 1.8330001
-0.34752008 0.17582819 1.8330001
-0.34442356 0.17582819 1.8330001
-0.34132704 0.17582819 1.8330001
-0.33823055 0.17582819 1.8330001
-0.33879071 0.17774667 1.853
-0.33203751 0.17582819 1.8330001
-0.33073553 0.17678742 1.8430001
-0.32762215 0.17678742 1.8430001
-0.32450873 0.17678742 1.8430001
-0.32313919 0.17774667 1.853
-0.3200089 0.17774667 1.853
-0.31687859 0.17774667 1.853
-0.31205508 0.17678742 1.8430001
-0.31061798 0.17774667 1.853
-0.3074877 0.17774667 1.853
-0.30435738 0.17774667 1.853
-0.30285269 0.1787059 1.863
-0.29970551 0.1787059 1.863
-0.29496649 0.17774667 1.853
-0.29341111 0.1787059 1.863
-0.29026392 0.1787059 1.863
-0.28711674 0.1787059 1.863
-0.28396952 0.1787059 1.863
-0.28082234 0.1787059 1.863
-0.27767515 0.1787059 1.863
-0.27452794 0.1787059 1.863
-0.27138075 0.1787059 1.863
-0.26823357 0.1787059 1.863
-0.26508635 0.1787059 1.863
-0.26053315 0.17774667 1.853
-0.25740287 0.17774667 1.853
-0.25564477 0.1787059 1.863
-0.25249758 0.1787059 1.863
-0.24935038 0.1787059 1.863
-0.2462032 0.1787059 1.863
-0.243056 0.1787059 1.863
-0.24119656 0.17966515 1.8730001
-0.2367616 0.1787059 1.863
-0.23361441 0.1787059 1.863
-0.23046722 0.1787059 1.863
-0.22732002 0.1787059 1.863
-0.22417283 0.1787059 1.863
-0.22221203 0.17966515 1.8730001
-0.21904793 0.17966515 1.8730001
-0.21588384 0.17966515 1.8730001
-0.21385548 0.18062437 1.8830001
-0.20955567 0.17966515 1.8730001
-0.20870563 0.18167955 1.8940001
-0.20550607 0.18167955 1.8940001
-0.20230651 0.18167955 1.8940001
-0.19910695 0.18167955 1.8940001
-0.19476959 0.18062437 1.8830001
-0.19158861 0.18062437 1.8830001
-0.18840763 0.18062437 1.8830001
-0.17302904 0.16872984 1.7590001
-0.17005752 0.16872984 1.7590001
-0.16708602 0.16872984 1.7590001
-0.16327481 0.16786651 1.7500001
-0.16031851 0.16786651 1.7500001
-0.15736221 0.16786651 1.7500001
-0.16984649 0.18465318 1.9250001
-0.16572914 0.18369393 1.9150001
-0.16249411 0.18369393 1.9150001
-0.15925907 0.18369393 1.9150001
-0.15602402 0.18369393 1.9150001
-0.15278898 0.18369393 1.9150001
-0.14869489 0.18263878 1.904
-0.14547843 0.18263878 1.904
-0.14226197 0.18263878 1.904
-0.13831523 0.18167955 1.8940001
-0.13582906 0.18263878 1.904
-0.1326126 0.18263878 1.904
-0.12939614 0.18263878 1.904
-0.1261797 0.18263878 1.904
-0.12231741 0.18167955 1.8940001
-0.11974677 0.18263878 1.904
-0.11653031 0.18263878 1.904
-0.11331386 0.18263878 1.904
-0.11009739 0.18263878 1.904
-0.10749842 0.18369393 1.9150001
-0.10426338 0.18369393 1.9150001
-0.10102835 0.18369393 1.9150001
-0.097793303 0.18369393 1.9150001
-0.094558261 0.18369393 1.9150001
-0.091323227 0.18369393 1.9150001
-0.088088185 0.18369393 1.9150001
-0.085296251 0.18465318 1.9250001
-0.081618108 0.18369393 1.9150001
-0.078792386 0.18465318 1.9250001
-0.075540453 0.18465318 1.9250001
-0.071912989 0.18369393 1.9150001
-0.068677947 0.18369393 1.9150001
-0.065442912 0.18369393 1.9150001
-0.06220787 0.18369393 1.9150001
-0.058972828 0.18369393 1.9150001
-0.05573779 0.18369393 1.9150001
-0.052776918 0.18465318 1.9250001
-0.049524985 0.18465318 1.9250001
-0.046273053 0.18465318 1.9250001
-0.04302112 0.18465318 1.9250001
-0.039769188 0.18465318 1.9250001
-0.036517255 0.18465318 1.9250001
-0.033265322 0.18465318 1.9250001
-0.030184895 0.18570833 1.9360001
-0.026914379 0.18570833 1.9360001
-0.023643864 0.18570833 1.9360001
-0.020489106 0.1867635 1.9470001
-0.017200008 0.1867635 1.9470001
-0.013910911 0.1867635 1.9470001
-0.010621814 0.1867635 1.9470001
-0.0073327166 0.1867635 1.9470001
-0.0040436187 0.1867635 1.9470001
-0.00075452111 0.1867635 1.9470001
0.002548896 0.18781866 1.9580001
0.0058565764 0.18781866 1.9580001
0.009164256 0.18781866 1.9580001
0.012471937 0.18781866 1.9580001
0.015868267 0.18887381 1.9690001
0.019301761 0.18992898 1.9800001
0.022520792 0.18887381 1.9690001
0.025847055 0.18887381 1.9690001
0.029173316 0.18887381 1.9690001
0.032499582 0.18887381 1.9690001
0.035825841 0.18887381 1.9690001
0.039152104 0.18887381 1.9690001
0.042715676 0.18992898 1.9800001
0.046060521 0.18992898 1.9800001
0.049405366 0.18992898 1.9800001
0.052750211 0.18992898 1.9800001
0.056095053 0.18992898 1.9800001
0.059439898 0.18992898 1.9800001
0.062784746 0.18992898 1.9800001
0.066129588 0.18992898 1.9800001
0.069474436 0.18992898 1.9800001
0.072819278 0.18992898 1.9800001
0.076164126 0.18992898 1.9800001
0.079990849 0.19108006 1.9920001
0.083355963 0.19108006 1.9920001
0.086721078 0.19108006 1.9920001
0.09058366 0.19213521 2.003
0.093451314 0.19108006 1.9920001
0.097351059 0.19213521 2.003
0.10018155 0.19108006 1.9920001
0.10354666 0.19108006 1.9920001
0.10750216 0.19213521 2.003
0.11088585 0.19213521 2.003
0.11426955 0.19213521 2.003
0.11765325 0.19213521 2.003
0.12176209 0.1932863 2.0150001
0.12516606 0.1932863 2.0150001
0.12857004 0.1932863 2.0150001
0.131974 0.1932863 2.0150001
0.13537797 0.1932863 2.0150001
0.13878195 0.1932863 2.0150001
0.14218591 0.1932863 2.0150001
0.14558989 0.1932863 2.0150001
0.14899385 0.1932863 2.0150001
0.15330541 0.1944374 2.0270002
0.15672965 0.1944374 2.0270002
0.1601539 0.1944374 2.0270002
0.16454653 0.19558848 2.039
0.16799104 0.19558848 2.039
0.17244451 0.19673955 2.0510001
0.17590928 0.19673955 2.0510001
0.17937407 0.19673955 2.0510001
0.18283886 0.19673955 2.0510001
0.18739368 0.19789064 2.0630002
0.19087873 0.19789064 2.0630002
-0.59983653 0.16409209 1.6810001
-0.59699678 0.16409209 1.6810001
-0.59722942 0.16653249 1.7060001
-0.59434748 0.16653249 1.7060001
-0.57735354 0.16497064 1.6900001
-0.57449859 0.16497064 1.6900001
-0.57164365 0.16497064 1.6900001
-0.56878871 0.16497064 1.6900001
-0.57698452 0.16819195 1.723
-0.57407379 0.16819195 1.723
-0.57116312 0.16819195 1.723
-0.56561404 0.16741103 1.715
-0.56271684 0.16741103 1.715
-0.5598197 0.16741103 1.715
-0.5569225 0.16741103 1.715
-0.55111784 0.16653249 1.7060001
-0.55112815 0.16741103 1.715
-0.51586002 0.16819195 1.723
-0.51211846 0.17082758 1.7500001
-0.50916219 0.17082758 1.7500001
-0.50620586 0.17082758 1.7500001
-0.50324959 0.17082758 1.7500001
-0.50029325 0.17082758 1.7500001
-0.5085389 0.17892969 1.8330001
-0.50296068 0.17805116 1.8240001
-0.49987939 0.17805116 1.8240001
-0.49407437 0.177075 1.8140001
-0.49100995 0.177075 1.8140001
-0.48525566 0.17609884 1.8040001
-0.48220813 0.17609884 1.8040001
-0.47916061 0.17609884 1.8040001
-0.47373781 0.1752203 1.7950001
-0.47070548 0.1752203 1.7950001
-0.46767315 0.1752203 1.7950001
-0.46464086 0.1752203 1.7950001
-0.46160853 0.1752203 1.7950001
-0.4585762 0.1752203 1.7950001
-0.45554388 0.1752203 1.7950001
-0.45251155 0.1752203 1.7950001
-0.45423692 0.177075 1.8140001
-0.4511725 0.177075 1.8140001
-0.44810811 0.177075 1.8140001
-0.4474971 0.17805116 1.8240001
-0.44441578 0.17805116 1.8240001
-0.44133443 0.17805116 1.8240001
-0.43825313 0.17805116 1.8240001
-0.43517181 0.17805116 1.8240001
-0.43209049 0.17805116 1.8240001
-0.4290092 0.17805116 1.8240001
-0.42592788 0.17805116 1.8240001
-0.42284656 0.17805116 1.8240001
-0.41976526 0.17805116 1.8240001
-0.41668394 0.17805116 1.8240001
-0.41360262 0.17805116 1.8240001
-0.41052133 0.17805116 1.8240001
-0.40744001 0.17805116 1.8240001
-0.40214181 0.177075 1.8140001
-0.40127739 0.17805116 1.8240001
-0.39819607 0.17805116 1.8240001
-0.39511475 0.17805116 1.8240001
-0.39203346 0.17805116 1.8240001
-0.38895214 0.17805116 1.8240001
-0.38587081 0.17805116 1.8240001
-0.38278952 0.17805116 1.8240001
-0.3797082 0.17805116 1.8240001
-0.37662688 0.17805116 1.8240001
-0.37354559 0.17805116 1.8240001
-0.37046427 0.17805116 1.8240001
-0.3691957 0.17892969 1.8330001
-0.36609918 0.17892969 1.8330001
-0.36300266 0.17892969 1.8330001
-0.35990614 0.17892969 1.8330001
-0.35680965 0.17892969 1.8330001
-0.35564283 0.17990585 1.8430001
-0.3506166 0.17892969 1.8330001
-0.34752008 0.17892969 1.8330001
-0.34442356 0.17892969 1.8330001
-0.34132704 0.17892969 1.8330001
-0.33823055 0.17892969 1.8330001
-0.33513403 0.17892969 1.8330001
-0.33203751 0.17892969 1.8330001
-0.33073553 0.17990585 1.8430001
-0.32584447 0.17892969 1.8330001
-0.32450873 0.17990585 1.8430001
-0.31965145 0.17892969 1.8330001
-0.31655493 0.17892969 1.8330001
-0.3151685 0.17990585 1.8430001
-0.31036189 0.17892969 1.8330001
-0.30726537 0.17892969 1.8330001
-0.30582827 0.17990585 1.8430001
-0.30271485 0.17990585 1.8430001
-0.29960147 0.17990585 1.8430001
-0.29648805 0.17990585 1.8430001
-0.29337463 0.17990585 1.8430001
-0.29026124 0.17990585 1.8430001
-0.28714782 0.17990585 1.8430001
-0.2840344 0.17990585 1.8430001
-0.28092101 0.17990585 1.8430001
-0.27931497 0.18088201 1.853
-0.27618468 0.18088201 1.853
-0.27305436 0.18088201 1.853
-0.26992407 0.18088201 1.853
-0.26679376 0.18088201 1.853
-0.26366347 0.18088201 1.853
-0.25912714 0.17990585 1.8430001
-0.25601372 0.17990585 1.8430001
-0.25290033 0.17990585 1.8430001
-0.25114226 0.18088201 1.853
-0.24801195 0.18088201 1.853
-0.24488164 0.18088201 1.853
-0.24175134 0.18088201 1.853
-0.2399088 0.18185817 1.863
-0.23549074 0.18088201 1.853
-0.23361441 0.18185817 1.863
-0.23046722 0.18185817 1.863
-0.22732002 0.18185817 1.863
-0.22417283 0.18185817 1.863
-0.22102563 0.18185817 1.863
-0.21787843 0.18185817 1.863
-0.21473125 0.18185817 1.863
-0.21271975 0.18283433 1.8730001
-0.20955567 0.18283433 1.8730001
-0.20639157 0.18283433 1.8730001
-0.20431253 0.18381047 1.8830001
-0.20113155 0.18381047 1.8830001
-0.19795057 0.18381047 1.8830001
-0.18101263 0.17082758 1.7500001
-0.17805633 0.17082758 1.7500001
-0.17510003 0.17082758 1.7500001
-0.17391434 0.17258467 1.7680001
-0.17005752 0.17170613 1.7590001
-0.16708602 0.17170613 1.7590001
-0.16411451 0.17170613 1.7590001
-0.161143 0.17170613 1.7590001
-0.15736221 0.17082758 1.7500001
-0.15440591 0.17082758 1.7500001
-0.16572914 0.18693419 1.9150001
-0.16249411 0.18693419 1.9150001
-0.15925907 0.18693419 1.9150001
-0.15683876 0.18791035 1.9250001
-0.15278898 0.18693419 1.9150001
-0.14869489 0.18586043 1.904
-0.14471436 0.18488427 1.8940001
-0.14151479 0.18488427 1.8940001
-0.13751192 0.18381047 1.8830001
-0.13511567 0.18488427 1.8940001
-0.13114996 0.18381047 1.8830001
-0.12796898 0.18381047 1.8830001
-0.12478799 0.18381047 1.8830001
-0.12160701 0.18381047 1.8830001
-0.11911785 0.18488427 1.8940001
-0.11653031 0.18586043 1.904
-0.11331386 0.18586043 1.904
-0.11009739 0.18586043 1.904
-0.10688094 0.18586043 1.904
-0.10366448 0.18586043 1.904
-0.10044803 0.18586043 1.904
-0.097231567 0.18586043 1.904
-0.094015107 0.18586043 1.904
-0.091323227 0.18693419 1.9150001
-0.088088185 0.18693419 1.9150001
-0.084853142 0.18693419 1.9150001
-0.081618108 0.18693419 1.9150001
-0.078383066 0.18693419 1.9150001
-0.075148031 0.18693419 1.9150001
-0.071499914 0.18586043 1.904
-0.068283454 0.18586043 1.904
-0.065066993 0.18586043 1.904
-0.06220787 0.18693419 1.9150001
-0.058972828 0.18693419 1.9150001
-0.05573779 0.18693419 1.9150001
-0.052502755 0.18693419 1.9150001
-0.049267713 0.18693419 1.9150001
-0.046032675 0.18693419 1.9150001
-0.042797636 0.18693419 1.9150001
-0.039562594 0.18693419 1.9150001
-0.036327556 0.18693419 1.9150001
-0.033092517 0.18693419 1.9150001
-0.029857477 0.18693419 1.9150001
-0.026761457 0.18791035 1.9250001
-0.023509525 0.18791035 1.9250001
-0.020373348 0.18898411 1.9360001
-0.017102834 0.18898411 1.9360001
-0.013753726 0.18791035 1.9250001
-0.010561803 0.18898411 1.9360001
-0.007249861 0.18791035 1.9250001
-0.0039771595 0.18693419 1.9150001
-0.00074599544 0.18791035 1.9250001
0.0025059374 0.18791035 1.9250001
0.0057578702 0.18791035 1.9250001
0.0090098027 0.18791035 1.9250001
0.012471937 0.19113167 1.9580001
0.015690967 0.19005789 1.9470001
0.019087298 0.19113167 1.9580001
0.022394978 0.19113167 1.9580001
0.025702657 0.19113167 1.9580001
0.029010339 0.19113167 1.9580001
0.032318018 0.19113167 1.9580001
0.0356257 0.19113167 1.9580001
0.039152104 0.19220544 1.9690001
0.042478368 0.19220544 1.9690001
0.045804631 0.19220544 1.9690001
0.049130894 0.19220544 1.9690001
0.052457154 0.19220544 1.9690001
0.055783413 0.19220544 1.9690001
0.059109677 0.19220544 1.9690001
0.062784746 0.19327921 1.9800001
0.066129588 0.19327921 1.9800001
0.069088466 0.19220544 1.9690001
0.072414726 0.19220544 1.9690001
0.075740993 0.19220544 1.9690001
0.079067253 0.19220544 1.9690001
0.082393512 0.19220544 1.9690001
0.086198658 0.19327921 1.9800001
0.090086199 0.1944506 1.9920001
0.092888348 0.19327921 1.9800001
0.096233197 0.19327921 1.9800001
0.10018155 0.1944506 1.9920001
0.10354666 0.1944506 1.9920001
0.10691178 0.1944506 1.9920001
0.1102769 0.1944506 1.9920001
0.11364201 0.1944506 1.9920001
0.11700713 0.1944506 1.9920001
0.12037224 0.1944506 1.9920001
0.12442065 0.19552436 2.003
0.12780435 0.19552436 2.003
0.13118805 0.19552436 2.003
0.13457175 0.19552436 2.003
0.13795544 0.19552436 2.003
0.14218591 0.19669576 2.0150001
0.14558989 0.19669576 2.0150001
0.14899385 0.19669576 2.0150001
0.15330541 0.19786716 2.0270002
0.15672965 0.19786716 2.0270002
0.1601539 0.19786716 2.0270002
0.16357814 0.19786716 2.0270002
0.16799104 0.19903855 2.039
0.17143556 0.19903855 2.039
-0.59698182 0.16614194 1.6730001
-0.59415561 0.16614194 1.6730001
-0.59722942 0.16941911 1.7060001
-0.59156042 0.16862464 1.6980001
-0.58020848 0.16783018 1.6900001
-0.57735354 0.16783018 1.6900001
-0.57449859 0.16783018 1.6900001
-0.57164365 0.16783018 1.6900001
-0.56878871 0.16783018 1.6900001
-0.57430559 0.17031287 1.715
-0.57140839 0.17031287 1.715
-0.56851125 0.17031287 1.715
-0.56561404 0.17031287 1.715
-0.56271684 0.17031287 1.715
-0.5598197 0.17031287 1.715
-0.5569225 0.17031287 1.715
-0.55111784 0.16941911 1.7060001
-0.54823589 0.16941911 1.7060001
-0.51346487 0.17031287 1.715
-0.51056767 0.17031287 1.715
-0.50916219 0.17378865 1.7500001
-0.50620586 0.17378865 1.7500001
-0.50324959 0.17378865 1.7500001
-0.49772033 0.17289488 1.7410001
-0.50544244 0.1820312 1.8330001
-0.49987939 0.18113743 1.8240001
-0.49407437 0.18014434 1.8140001
-0.48830318 0.17915127 1.8040001
-0.48283479 0.1782575 1.7950001
-0.47980246 0.1782575 1.7950001
-0.47677013 0.1782575 1.7950001
-0.47136253 0.17736374 1.7860001
-0.4683454 0.17736374 1.7860001
-0.46532828 0.17736374 1.7860001
-0.46464086 0.1782575 1.7950001
-0.46160853 0.1782575 1.7950001
-0.4585762 0.1782575 1.7950001
-0.45554388 0.1782575 1.7950001
-0.45251155 0.1782575 1.7950001
-0.44947922 0.1782575 1.7950001
-0.4511725 0.18014434 1.8140001
-0.44563785 0.17915127 1.8040001
-0.44504368 0.18014434 1.8140001
-0.44197926 0.18014434 1.8140001
-0.44133443 0.18113743 1.8240001
-0.43825313 0.18113743 1.8240001
-0.43517181 0.18113743 1.8240001
-0.42972159 0.18014434 1.8140001
-0.42665717 0.18014434 1.8140001
-0.42359275 0.18014434 1.8140001
-0.42052832 0.18014434 1.8140001
-0.4174639 0.18014434 1.8140001
-0.41439947 0.18014434 1.8140001
-0.41133508 0.18014434 1.8140001
-0.40827066 0.18014434 1.8140001
-0.40520623 0.18014434 1.8140001
-0.40214181 0.18014434 1.8140001
-0.39907739 0.18014434 1.8140001
-0.39601296 0.18014434 1.8140001
-0.39511475 0.18113743 1.8240001
-0.39203346 0.18113743 1.8240001
-0.38895214 0.18113743 1.8240001
-0.3837553 0.18014434 1.8140001
-0.38278952 0.18113743 1.8240001
-0.3797082 0.18113743 1.8240001
-0.37662688 0.18113743 1.8240001
-0.37354559 0.18113743 1.8240001
-0.37046427 0.18113743 1.8240001
-0.36738294 0.18113743 1.8240001
-0.36430165 0.18113743 1.8240001
-0.36300266 0.1820312 1.8330001
-0.35990614 0.1820312 1.8330001
-0.35505772 0.18113743 1.8240001
-0.35197639 0.18113743 1.8240001
-0.34889507 0.18113743 1.8240001
-0.34752008 0.1820312 1.8330001
-0.34273246 0.18113743 1.8240001
-0.33965114 0.18113743 1.8240001
-0.33823055 0.1820312 1.8330001
-0.33513403 0.1820312 1.8330001
-0.33203751 0.1820312 1.8330001
-0.32894099 0.1820312 1.8330001
-0.32584447 0.1820312 1.8330001
-0.32274795 0.1820312 1.8330001
-0.31965145 0.1820312 1.8330001
-0.31655493 0.1820312 1.8330001
-0.31345841 0.1820312 1.8330001
-0.31036189 0.1820312 1.8330001
-0.30726537 0.1820312 1.8330001
-0.30416888 0.1820312 1.8330001
-0.30107236 0.1820312 1.8330001
-0.29960147 0.18302427 1.8430001
-0.29648805 0.18302427 1.8430001
-0.29337463 0.18302427 1.8430001
-0.29026124 0.18302427 1.8430001
-0.28558978 0.1820312 1.8330001
-0.2840344 0.18302427 1.8430001
-0.28092101 0.18302427 1.8430001
-0.27780759 0.18302427 1.8430001
-0.2732037 0.1820312 1.8330001
-0.27158079 0.18302427 1.8430001
-0.26846737 0.18302427 1.8430001
-0.26535395 0.18302427 1.8430001
-0.26224056 0.18302427 1.8430001
-0.25772113 0.1820312 1.8330001
-0.25601372 0.18302427 1.8430001
-0.25290033 0.18302427 1.8430001
-0.24978691 0.18302427 1.8430001
-0.24667351 0.18302427 1.8430001
-0.24488164 0.18401736 1.853
-0.24175134 0.18401736 1.853
-0.23862104 0.18401736 1.853
-0.23549074 0.18401736 1.853
-0.23236044 0.18401736 1.853
-0.22923014 0.18401736 1.853
-0.22609983 0.18401736 1.853
-0.22296953 0.18401736 1.853
-0.21983923 0.18401736 1.853
-0.21670893 0.18401736 1.853
-0.21242602 0.18302427 1.8430001
-0.20931262 0.18302427 1.8430001
-0.20295461 0.18014434 1.8140001
-0.1998902 0.18014434 1.8140001
-0.1947642 0.1782575 1.7950001
-0.19077055 0.17736374 1.7860001
-0.18586119 0.1755762 1.7680001
-0.18101263 0.17378865 1.7500001
-0.17805633 0.17378865 1.7500001
-0.17510003 0.17378865 1.7500001
-0.17391434 0.1755762 1.7680001
-0.17092763 0.1755762 1.7680001
-0.16708602 0.17468242 1.7590001
-0.16411451 0.17468242 1.7590001
-0.16031851 0.17378865 1.7500001
-0.15736221 0.17378865 1.7500001
-0.15361181 0.17289488 1.7410001
-0.15144961 0.17378865 1.7500001
-0.1484933 0.17378865 1.7500001
-0.15925907 0.19017445 1.9150001
-0.15683876 0.19116752 1.9250001
-0.15358683 0.19116752 1.9250001
-0.14869489 0.18908206 1.904
-0.14471436 0.18808898 1.8940001
-0.1406929 0.18699658 1.8830001
-0.13751192 0.18699658 1.8830001
-0.13433094 0.18699658 1.8830001
-0.13114996 0.18699658 1.8830001
-0.12728937 0.18600352 1.8730001
-0.12412528 0.18600352 1.8730001
-0.1209612 0.18600352 1.8730001
-0.11911785 0.18808898 1.8940001
-0.11591829 0.18808898 1.8940001
-0.11271872 0.18808898 1.8940001
-0.10951915 0.18808898 1.8940001
-0.10631959 0.18808898 1.8940001
-0.10366448 0.18908206 1.904
-0.10044803 0.18908206 1.904
-0.097231567 0.18908206 1.904
-0.093521334 0.18808898 1.8940001
-0.090798654 0.18908206 1.904
-0.087582193 0.18908206 1.904
-0.08436574 0.18908206 1.904
-0.08114928 0.18908206 1.904
-0.077932827 0.18908206 1.904
-0.074716367 0.18908206 1.904
-0.071499914 0.18908206 1.904
-0.068283454 0.18908206 1.904
-0.065066993 0.18908206 1.904
-0.06185054 0.18908206 1.904
-0.058634084 0.18908206 1.904
-0.055417627 0.18908206 1.904
-0.052502755 0.19017445 1.9150001
-0.049267713 0.19017445 1.9150001
-0.046032675 0.19017445 1.9150001
-0.042551801 0.18908206 1.904
-0.039562594 0.19017445 1.9150001
-0.036327556 0.19017445 1.9150001
-0.033092517 0.19017445 1.9150001
-0.029857477 0.19017445 1.9150001
-0.026622435 0.19017445 1.9150001
-0.023387397 0.19017445 1.9150001
-0.020152356 0.19017445 1.9150001
-0.016917316 0.19017445 1.9150001
-0.013682279 0.19017445 1.9150001
-0.010447239 0.19017445 1.9150001
-0.0072121993 0.19017445 1.9150001
-0.0039771595 0.19017445 1.9150001
-0.00074212014 0.19017445 1.9150001
0.0024929193 0.19017445 1.9150001
0.0057279589 0.19017445 1.9150001
0.0090098027 0.19116752 1.9250001
0.01240187 0.19335228 1.9470001
0.015690967 0.19335228 1.9470001
0.018980065 0.19335228 1.9470001
0.022269163 0.19335228 1.9470001
0.025558261 0.19335228 1.9470001
0.029010339 0.19444467 1.9580001
0.032318018 0.19444467 1.9580001
0.0356257 0.19444467 1.9580001
0.038933378 0.19444467 1.9580001
0.042241059 0.19444467 1.9580001
0.045804631 0.19553706 1.9690001
0.049130894 0.19553706 1.9690001
0.0521641 0.19444467 1.9580001
0.055783413 0.19553706 1.9690001
0.059109677 0.19553706 1.9690001
0.06243594 0.19553706 1.9690001
0.065762199 0.19553706 1.9690001
0.069088466 0.19553706 1.9690001
0.072414726 0.19553706 1.9690001
0.07531786 0.19444467 1.9580001
0.078625537 0.19444467 1.9580001
0.082393512 0.19553706 1.9690001
0.085719779 0.19553706 1.9690001
0.089046039 0.19553706 1.9690001
0.092372306 0.19553706 1.9690001
0.095698565 0.19553706 1.9690001
0.099578038 0.19662943 1.9800001
0.10292289 0.19662943 1.9800001
0.10626773 0.19662943 1.9800001
0.10961258 0.19662943 1.9800001
0.11295743 0.19662943 1.9800001
0.11630227 0.19662943 1.9800001
0.11964712 0.19662943 1.9800001
0.12373736 0.19782114 1.9920001
0.12710248 0.19782114 1.9920001
0.13118805 0.19891351 2.003
0.13457175 0.19891351 2.003
0.13795544 0.19891351 2.003
0.14133914 0.19891351 2.003
-0.59956056 0.16654874 1.649
-0.59677488 0.16654874 1.649
-0.59398919 0.16654874 1.649
-0.59120351 0.16654874 1.649
-0.58841783 0.16654874 1.649
-0.58563215 0.16654874 1.649
-0.59722942 0.17230572 1.7060001
-0.59434748 0.17230572 1.7060001
-0.57735354 0.17068972 1.6900001
-0.57449859 0.17068972 1.6900001
-0.57164365 0.17068972 1.6900001
-0.56878871 0.17068972 1.6900001
-0.56593376 0.17068972 1.6900001
-0.56840968 0.17230572 1.7060001
-0.56851125 0.17321472 1.715
-0.56561404 0.17321472 1.715
-0.55976379 0.17230572 1.7060001
-0.55688179 0.17230572 1.7060001
-0.55399984 0.17230572 1.7060001
-0.5485335 0.17149772 1.6980001
-0.54566509 0.17149772 1.6980001
-0.51346487 0.17321472 1.715
-0.51294929 0.17402272 1.723
-0.50948471 0.17584072 1.7410001
-0.50654364 0.17584072 1.7410001
-0.50360256 0.17584072 1.7410001
-0.50066143 0.17584072 1.7410001
-0.49514741 0.17493172 1.7320001
-0.49987939 0.1842237 1.8240001
-0.49407437 0.1832137 1.8140001
-0.48586708 0.18129471 1.7950001
-0.48283479 0.18129471 1.7950001
-0.47980246 0.18129471 1.7950001
-0.47677013 0.18129471 1.7950001
-0.47136253 0.18038571 1.7860001
-0.4683454 0.18038571 1.7860001
-0.46532828 0.18038571 1.7860001
-0.46231118 0.18038571 1.7860001
-0.45929405 0.18038571 1.7860001
-0.45627692 0.18038571 1.7860001
-0.45325983 0.18038571 1.7860001
-0.4502427 0.18038571 1.7860001
-0.44947922 0.18129471 1.7950001
-0.44644693 0.18129471 1.7950001
-0.4434146 0.18129471 1.7950001
-0.44259033 0.1822037 1.8040001
-0.44197926 0.1832137 1.8140001
-0.43891484 0.1832137 1.8140001
-0.43825313 0.1842237 1.8240001
-0.43517181 0.1842237 1.8240001
-0.42972159 0.1832137 1.8140001
-0.4290092 0.1842237 1.8240001
-0.42359275 0.1832137 1.8140001
-0.42052832 0.1832137 1.8140001
-0.41516259 0.1822037 1.8040001
-0.41439947 0.1832137 1.8140001
-0.41133508 0.1832137 1.8140001
-0.40827066 0.1832137 1.8140001
-0.40520623 0.1832137 1.8140001
-0.39792976 0.18129471 1.7950001
-0.39687744 0.1822037 1.8040001
-0.39601296 0.1832137 1.8140001
-0.39294857 0.1832137 1.8140001
-0.38988414 0.1832137 1.8140001
-0.38681972 0.1832137 1.8140001
-0.3837553 0.1832137 1.8140001
-0.38069087 0.1832137 1.8140001
-0.37762645 0.1832137 1.8140001
-0.37456205 0.1832137 1.8140001
-0.37149763 0.1832137 1.8140001
-0.36843321 0.1832137 1.8140001
-0.36738294 0.1842237 1.8240001
-0.36430165 0.1842237 1.8240001
-0.36122033 0.1842237 1.8240001
-0.35813901 0.1842237 1.8240001
-0.35505772 0.1842237 1.8240001
-0.35197639 0.1842237 1.8240001
-0.34889507 0.1842237 1.8240001
-0.34581378 0.1842237 1.8240001
-0.34273246 0.1842237 1.8240001
-0.33965114 0.1842237 1.8240001
-0.33656985 0.1842237 1.8240001
-0.33348852 0.1842237 1.8240001
-0.33203751 0.1851327 1.8330001
-0.32894099 0.1851327 1.8330001
-0.32424459 0.1842237 1.8240001
-0.32116327 0.1842237 1.8240001
-0.31808197 0.1842237 1.8240001
-0.31500065 0.1842237 1.8240001
-0.31191933 0.1842237 1.8240001
-0.30883804 0.1842237 1.8240001
-0.30575672 0.1842237 1.8240001
-0.3026754 0.1842237 1.8240001
-0.2995941 0.1842237 1.8240001
-0.29797584 0.1851327 1.8330001
-0.29343146 0.1842237 1.8240001
-0.2917828 0.1851327 1.8330001
-0.28726885 0.1842237 1.8240001
-0.28558978 0.1851327 1.8330001
-0.28249326 0.1851327 1.8330001
-0.27939674 0.1851327 1.8330001
-0.27630022 0.1851327 1.8330001
-0.2732037 0.1851327 1.8330001
-0.27010718 0.1851327 1.8330001
-0.26701069 0.1851327 1.8330001
-0.26391417 0.1851327 1.8330001
-0.26081765 0.1851327 1.8330001
-0.25772113 0.1851327 1.8330001
-0.25462461 0.1851327 1.8330001
-0.25152811 0.1851327 1.8330001
-0.24843158 0.1851327 1.8330001
-0.24533507 0.1851327 1.8330001
-0.24223855 0.1851327 1.8330001
-0.23914203 0.1851327 1.8330001
-0.23733328 0.1861427 1.8430001
-0.23421988 0.1861427 1.8430001
-0.23110646 0.1861427 1.8430001
-0.22799306 0.1861427 1.8430001
-0.22487965 0.1861427 1.8430001
-0.22056295 0.1851327 1.8330001
-0.21746644 0.1851327 1.8330001
-0.21436992 0.1851327 1.8330001
-0.21023606 0.1842237 1.8240001
-0.20601903 0.1832137 1.8140001
-0.20295461 0.1832137 1.8140001
-0.1998902 0.1832137 1.8140001
-0.1947642 0.18129471 1.7950001
-0.19077055 0.18038571 1.7860001
-0.18586119 0.17856771 1.7680001
-0.18287447 0.17856771 1.7680001
-0.17897205 0.17765872 1.7590001
-0.17510003 0.17674971 1.7500001
-0.17302904 0.17765872 1.7590001
-0.17005752 0.17765872 1.7590001
-0.16708602 0.17765872 1.7590001
-0.16411451 0.17765872 1.7590001
-0.16031851 0.17674971 1.7500001
-0.15736221 0.17674971 1.7500001
