# .PCD v0.7 - Point Cloud Data file format
VERSION 0.7
FIELDS x y z
SIZE 4 4 4
TYPE F F F
COUNT 1 1 1
WIDTH 1539
HEIGHT 1
VIEWPOINT 0 0 0 1 0 0 0
POINTS 1539
DATA ascii
0.79320502 0.40131399 1.8430001
0.79631847 0.40131399 1.8430001
0.79943186 0.40131399 1.8430001
0.80689979 0.40349147 1.853
0.8056587 0.40131399 1.8430001
0.81316042 0.40349147 1.853
0.81629068 0.40349147 1.853
0.82384318 0.40566897 1.863
0.82699037 0.40566897 1.863
0.83013755 0.40566897 1.863
0.83328474 0.40566897 1.863
0.83643192 0.40566897 1.863
0.84408575 0.40784648 1.8730001
0.84724987 0.40784648 1.8730001
0.85041392 0.40784648 1.8730001
0.85357803 0.40784648 1.8730001
0.85674208 0.40784648 1.8730001
0.85531509 0.40566897 1.863
0.89154702 0.40784648 1.8730001
0.89948809 0.41002399 1.8830001
0.90266907 0.41002399 1.8830001
0.90585005 0.41002399 1.8830001
0.90903103 0.41002399 1.8830001
0.91221201 0.41002399 1.8830001
0.93673825 0.41241923 1.8940001
0.93993777 0.41241923 1.8940001
0.94313735 0.41241923 1.8940001
0.94633693 0.41241923 1.8940001
1.0032979 0.42156476 1.9360001
1.0065684 0.42156476 1.9360001
0.9988851 0.41699201 1.9150001
1.0021201 0.41699201 1.9150001
1.0053551 0.41699201 1.9150001
1.0085902 0.41699201 1.9150001
1.0171089 0.41916949 1.9250001
0.50167453 0.46960679 2.1400001
0.50528967 0.46960679 2.1400001
0.50890481 0.46960679 2.1400001
0.51251996 0.46960679 2.1400001
0.5161351 0.46960679 2.1400001
0.51975024 0.46960679 2.1400001
0.52336538 0.46960679 2.1400001
0.52698052 0.46960679 2.1400001
0.53059566 0.46960679 2.1400001
0.5342108 0.46960679 2.1400001
0.53455871 0.46675408 2.1270001
0.53486282 0.46390128 2.1140001
0.53843403 0.46390128 2.1140001
0.54200524 0.46390128 2.1140001
0.54893142 0.46675408 2.1270001
0.54914767 0.46390128 2.1140001
0.55271888 0.46390128 2.1140001
0.55971092 0.46675408 2.1270001
0.56330413 0.46675408 2.1270001
0.56689727 0.46675408 2.1270001
0.57397729 0.46960679 2.1400001
0.57408363 0.46675408 2.1270001
0.55472279 0.43208215 1.9690001
0.55804908 0.43208215 1.9690001
0.56137532 0.43208215 1.9690001
0.56154686 0.42966828 1.9580001
0.56485456 0.42966828 1.9580001
0.5681622 0.42966828 1.9580001
0.5714699 0.42966828 1.9580001
0.5747776 0.42966828 1.9580001
0.57808524 0.42966828 1.9580001
0.58139294 0.42966828 1.9580001
0.58141571 0.42725441 1.9470001
0.58470482 0.42725441 1.9470001
0.58799392 0.42725441 1.9470001
0.59128302 0.42725441 1.9470001
0.59457213 0.42725441 1.9470001
0.59786123 0.42725441 1.9470001
0.597754 0.42484054 1.9360001
0.59760964 0.42242667 1.9250001
0.60086155 0.42242667 1.9250001
0.60411352 0.42242667 1.9250001
0.68371993 0.47553173 2.1670001
0.68738067 0.47553173 2.1670001
0.69104141 0.47553173 2.1670001
0.69021398 0.47245955 2.1530001
0.69836289 0.47553173 2.1670001
0.69748819 0.47245955 2.1530001
0.70112532 0.47245955 2.1530001
0.70934516 0.47553173 2.1670001
0.7130059 0.47553173 2.1670001
0.71666664 0.47553173 2.1670001
0.72032738 0.47553173 2.1670001
0.72398812 0.47553173 2.1670001
0.72764885 0.47553173 2.1670001
0.73130959 0.47553173 2.1670001
0.73497039 0.47553173 2.1670001
0.73863113 0.47553173 2.1670001
0.74708754 0.47860393 2.181
0.75077194 0.47860393 2.181
0.75895327 0.4814567 2.194
0.76265961 0.4814567 2.194
0.766366 0.4814567 2.194
0.77007234 0.4814567 2.194
0.77377868 0.4814567 2.194
0.77748507 0.4814567 2.194
0.77656269 0.47860393 2.181
0.78024709 0.47860393 2.181
0.78393149 0.47860393 2.181
0.7876159 0.47860393 2.181
0.79601687 0.4814567 2.194
0.7949847 0.47860393 2.181
0.80342954 0.4814567 2.194
0.80713594 0.4814567 2.194
0.81084228 0.4814567 2.194
0.81974632 0.48452887 2.2080002
0.82347631 0.48452887 2.2080002
0.82196134 0.4814567 2.194
0.82566774 0.4814567 2.194
0.82937407 0.4814567 2.194
0.83308041 0.4814567 2.194
0.83182865 0.47860393 2.181
0.84049314 0.4814567 2.194
0.83919746 0.47860393 2.181
0.84288186 0.47860393 2.181
0.84656626 0.47860393 2.181
0.85531861 0.4814567 2.194
0.86450642 0.48452887 2.2080002
0.87413478 0.48782051 2.223
0.87196642 0.48452887 2.2080002
0.87569642 0.48452887 2.2080002
0.87942642 0.48452887 2.2080002
0.88315648 0.48452887 2.2080002
0.88688654 0.48452887 2.2080002
0.89061654 0.48452887 2.2080002
0.89434654 0.48452887 2.2080002
0.8923822 0.4814567 2.194
0.89608854 0.4814567 2.194
0.89446342 0.47860393 2.181
0.78922403 0.40882123 1.863
0.79237121 0.40882123 1.863
0.7955184 0.40882123 1.863
0.79437858 0.40662682 1.853
0.7975089 0.40662682 1.853
0.79631847 0.40443242 1.8430001
0.79943186 0.40443242 1.8430001
0.80689979 0.40662682 1.853
0.8056587 0.40443242 1.8430001
0.81316042 0.40662682 1.853
0.81629068 0.40662682 1.853
0.82384318 0.40882123 1.863
0.82699037 0.40882123 1.863
0.83013755 0.40882123 1.863
0.83328474 0.40882123 1.863
0.84092164 0.41101566 1.8730001
0.84408575 0.41101566 1.8730001
0.84724987 0.41101566 1.8730001
0.85041392 0.41101566 1.8730001
0.85357803 0.41101566 1.8730001
0.85674208 0.41101566 1.8730001
0.89154702 0.41101566 1.8730001
0.89471114 0.41101566 1.8730001
0.89787519 0.41101566 1.8730001
0.90585005 0.41321009 1.8830001
0.90903103 0.41321009 1.8830001
0.91754085 0.41562396 1.8940001
0.92074043 0.41562396 1.8940001
0.93353868 0.41562396 1.8940001
0.93673825 0.41562396 1.8940001
0.94490057 0.41781837 1.904
0.94313735 0.41562396 1.8940001
0.94633693 0.41562396 1.8940001
1.0000274 0.42484054 1.9360001
1.0032979 0.42484054 1.9360001
1.0065684 0.42484054 1.9360001
1.0041012 0.42242667 1.9250001
1.0021201 0.42023227 1.9150001
1.010605 0.42242667 1.9250001
1.013857 0.42242667 1.9250001
1.0171089 0.42242667 1.9250001
0.50108498 0.47610253 2.1530001
0.50472206 0.47610253 2.1530001
0.50528967 0.47322774 2.1400001
0.50890481 0.47322774 2.1400001
0.50940651 0.47035304 2.1270001
0.51299965 0.47035304 2.1270001
0.51659286 0.47035304 2.1270001
0.52018601 0.47035304 2.1270001
0.52377921 0.47035304 2.1270001
0.52414918 0.46747828 2.1140001
0.53096557 0.47035304 2.1270001
0.5312916 0.46747828 2.1140001
0.53157365 0.46460348 2.1010001
0.53512287 0.46460348 2.1010001
0.53867215 0.46460348 2.1010001
0.54557645 0.46747828 2.1140001
0.54577065 0.46460348 2.1010001
0.55271888 0.46747828 2.1140001
0.55286914 0.46460348 2.1010001
0.5598613 0.46747828 2.1140001
0.56343251 0.46747828 2.1140001
0.56700373 0.46747828 2.1140001
0.57057494 0.46747828 2.1140001
0.55447698 0.43784624 1.9800001
0.55472279 0.43541375 1.9690001
0.55804908 0.43541375 1.9690001
0.56137532 0.43541375 1.9690001
0.56470162 0.43541375 1.9690001
0.56485456 0.43298128 1.9580001
0.5681622 0.43298128 1.9580001
0.5714699 0.43298128 1.9580001
0.5747776 0.43298128 1.9580001
0.57808524 0.43298128 1.9580001
0.58139294 0.43298128 1.9580001
0.58141571 0.43054882 1.9470001
0.58470482 0.43054882 1.9470001
0.58799392 0.43054882 1.9470001
0.59128302 0.43054882 1.9470001
0.59121299 0.42811632 1.9360001
0.59448349 0.42811632 1.9360001
0.597754 0.42811632 1.9360001
0.59760964 0.42568383 1.9250001
0.60086155 0.42568383 1.9250001
0.60411352 0.42568383 1.9250001
0.67930269 0.47610253 2.1530001
0.68293983 0.47610253 2.1530001
0.6865769 0.47610253 2.1530001
0.69021398 0.47610253 2.1530001
0.69385111 0.47610253 2.1530001
0.69748819 0.47610253 2.1530001
0.70112532 0.47610253 2.1530001
0.7047624 0.47610253 2.1530001
0.70839947 0.47610253 2.1530001
0.71203661 0.47610253 2.1530001
0.71567369 0.47610253 2.1530001
0.71931076 0.47610253 2.1530001
0.7229479 0.47610253 2.1530001
0.72658497 0.47610253 2.1530001
0.73497039 0.47919837 2.1670001
0.73385918 0.47610253 2.1530001
0.74229187 0.47919837 2.1670001
0.74595261 0.47919837 2.1670001
0.75445628 0.48229426 2.181
0.75814068 0.48229426 2.181
0.76182508 0.48229426 2.181
0.76550949 0.48229426 2.181
0.76919389 0.48229426 2.181
0.77287829 0.48229426 2.181
0.77656269 0.48229426 2.181
0.78024709 0.48229426 2.181
0.77889931 0.47919837 2.1670001
0.7876159 0.48229426 2.181
0.7913003 0.48229426 2.181
0.78988159 0.47919837 2.1670001
0.7986691 0.48229426 2.181
0.8023535 0.48229426 2.181
0.8060379 0.48229426 2.181
0.81454867 0.48516902 2.194
0.81825501 0.48516902 2.194
0.82196134 0.48516902 2.194
0.82077545 0.48229426 2.181
0.82445985 0.48229426 2.181
0.82814425 0.48229426 2.181
0.83182865 0.48229426 2.181
0.83551306 0.48229426 2.181
0.83381057 0.47919837 2.1670001
0.84288186 0.48229426 2.181
0.84113204 0.47919837 2.1670001
0.85025066 0.48229426 2.181
0.85902494 0.48516902 2.194
0.86273134 0.48516902 2.194
0.86643767 0.48516902 2.194
0.87014401 0.48516902 2.194
0.87385041 0.48516902 2.194
0.87755674 0.48516902 2.194
0.88126308 0.48516902 2.194
0.88496947 0.48516902 2.194
0.88867581 0.48516902 2.194
0.88709462 0.48229426 2.181
0.89077902 0.48229426 2.181
0.89446342 0.48229426 2.181
0.78922403 0.41197351 1.863
0.79237121 0.41197351 1.863
0.7955184 0.41197351 1.863
0.79437858 0.40976217 1.853
0.7975089 0.40976217 1.853
0.80063921 0.40976217 1.853
0.80376947 0.40976217 1.853
0.80689979 0.40976217 1.853
0.8100301 0.40976217 1.853
0.81316042 0.40976217 1.853
0.82069594 0.41197351 1.863
0.82384318 0.41197351 1.863
0.82699037 0.41197351 1.863
0.83013755 0.41197351 1.863
0.83775759 0.41418487 1.8730001
0.84092164 0.41418487 1.8730001
0.84408575 0.41418487 1.8730001
0.84724987 0.41418487 1.8730001
0.85041392 0.41418487 1.8730001
0.85357803 0.41418487 1.8730001
0.85674208 0.41418487 1.8730001
0.89154702 0.41418487 1.8730001
0.89471114 0.41418487 1.8730001
0.90266907 0.4163962 1.8830001
0.90585005 0.4163962 1.8830001
0.90903103 0.4163962 1.8830001
0.91754085 0.41882867 1.8940001
0.92074043 0.41882867 1.8940001
0.9303391 0.41882867 1.8940001
0.93353868 0.41882867 1.8940001
0.93673825 0.41882867 1.8940001
0.93993777 0.41882867 1.8940001
0.94313735 0.41882867 1.8940001
1.0008492 0.42568383 1.9250001
1.0041012 0.42568383 1.9250001
1.0073531 0.42568383 1.9250001
1.010605 0.42568383 1.9250001
1.013857 0.42568383 1.9250001
0.50068253 0.48286501 2.1670001
0.50108498 0.47974548 2.1530001
0.50167453 0.47684872 2.1400001
0.50528967 0.47684872 2.1400001
0.5058133 0.473952 2.1270001
0.50940651 0.473952 2.1270001
0.51299965 0.473952 2.1270001
0.51343554 0.47105524 2.1140001
0.52018601 0.473952 2.1270001
0.52057797 0.47105524 2.1140001
0.52414918 0.47105524 2.1140001
0.52772039 0.47105524 2.1140001
0.5312916 0.47105524 2.1140001
0.53157365 0.46815845 2.1010001
0.53512287 0.46815845 2.1010001
0.53867215 0.46815845 2.1010001
0.54222143 0.46815845 2.1010001
0.54577065 0.46815845 2.1010001
0.54931992 0.46815845 2.1010001
0.55286914 0.46815845 2.1010001
0.55641842 0.46815845 2.1010001
0.55996764 0.46815845 2.1010001
0.56351691 0.46815845 2.1010001
0.56706619 0.46815845 2.1010001
0.56708467 0.46526176 2.0880001
0.55139655 0.43874538 1.9690001
0.55472279 0.43874538 1.9690001
0.55804908 0.43874538 1.9690001
0.56137532 0.43874538 1.9690001
0.56470162 0.43874538 1.9690001
0.56485456 0.43629429 1.9580001
0.5681622 0.43629429 1.9580001
0.5714699 0.43629429 1.9580001
0.5747776 0.43629429 1.9580001
0.57808524 0.43629429 1.9580001
0.58139294 0.43629429 1.9580001
0.58470064 0.43629429 1.9580001
0.58800828 0.43629429 1.9580001
0.59131598 0.43629429 1.9580001
0.59128302 0.4338432 1.9470001
0.59457213 0.4338432 1.9470001
0.59786123 0.4338432 1.9470001
0.60115033 0.4338432 1.9470001
0.60102451 0.4313921 1.9360001
0.60086155 0.42894101 1.9250001
0.60411352 0.42894101 1.9250001
0.60736543 0.42894101 1.9250001
0.67469251 0.473952 2.1270001
0.67828572 0.473952 2.1270001
0.68187886 0.473952 2.1270001
0.68547207 0.473952 2.1270001
0.68906522 0.473952 2.1270001
0.69265842 0.473952 2.1270001
0.69625157 0.473952 2.1270001
0.69984472 0.473952 2.1270001
0.70773727 0.47684872 2.1400001
0.71135241 0.47684872 2.1400001
0.71931076 0.47974548 2.1530001
0.71858269 0.47684872 2.1400001
0.72658497 0.47974548 2.1530001
0.73022205 0.47974548 2.1530001
0.73385918 0.47974548 2.1530001
0.73749626 0.47974548 2.1530001
0.74113333 0.47974548 2.1530001
0.74961334 0.48286501 2.1670001
0.75327408 0.48286501 2.1670001
0.76182508 0.48598459 2.181
0.76550949 0.48598459 2.181
0.76919389 0.48598459 2.181
0.77287829 0.48598459 2.181
0.77157784 0.48286501 2.1670001
0.77523857 0.48286501 2.1670001
0.77889931 0.48286501 2.1670001
0.78256011 0.48286501 2.1670001
0.78622085 0.48286501 2.1670001
0.78988159 0.48286501 2.1670001
0.79354233 0.48286501 2.1670001
0.79720306 0.48286501 2.1670001
0.8008638 0.48286501 2.1670001
0.80972224 0.48598459 2.181
0.81340665 0.48598459 2.181
0.81709105 0.48598459 2.181
0.82077545 0.48598459 2.181
0.82445985 0.48598459 2.181
0.82814425 0.48598459 2.181
0.83182865 0.48598459 2.181
0.83551306 0.48598459 2.181
0.83919746 0.48598459 2.181
0.84288186 0.48598459 2.181
0.84656626 0.48598459 2.181
0.85531861 0.48888138 2.194
0.85393506 0.48598459 2.181
0.85761946 0.48598459 2.181
0.86130387 0.48598459 2.181
0.86498821 0.48598459 2.181
0.86867261 0.48598459 2.181
0.87235701 0.48598459 2.181
0.87604141 0.48598459 2.181
0.87972581 0.48598459 2.181
0.88341022 0.48598459 2.181
0.88709462 0.48598459 2.181
0.89077902 0.48598459 2.181
0.89446342 0.48598459 2.181
0.89814782 0.48598459 2.181
0.79346031 0.41735405 1.8730001
0.79662442 0.41735405 1.8730001
0.7955184 0.41512576 1.863
0.79866558 0.41512576 1.863
0.80181277 0.41512576 1.863
0.80063921 0.4128975 1.853
0.80376947 0.4128975 1.853
0.80689979 0.4128975 1.853
0.8100301 0.4128975 1.853
0.81316042 0.4128975 1.853
0.82069594 0.41512576 1.863
0.82826531 0.41735405 1.8730001
0.83142942 0.41735405 1.8730001
0.83459347 0.41735405 1.8730001
0.83775759 0.41735405 1.8730001
0.84092164 0.41735405 1.8730001
0.84408575 0.41735405 1.8730001
0.84724987 0.41735405 1.8730001
0.85041392 0.41735405 1.8730001
0.85357803 0.41735405 1.8730001
0.85674208 0.41735405 1.8730001
0.88838291 0.41735405 1.8730001
0.89154702 0.41735405 1.8730001
0.89471114 0.41735405 1.8730001
0.89787519 0.41735405 1.8730001
0.90585005 0.41958231 1.8830001
0.90903103 0.41958231 1.8830001
0.92560184 0.42426166 1.904
0.93353868 0.4220334 1.8940001
0.94168413 0.42426166 1.904
0.94490057 0.42426166 1.904
0.94313735 0.4220334 1.8940001
0.95133346 0.42426166 1.904
1.0065684 0.4313921 1.9360001
1.0098389 0.4313921 1.9360001
1.0131094 0.4313921 1.9360001
1.01638 0.4313921 1.9360001
1.013857 0.42894101 1.9250001
0.50108498 0.48338842 2.1530001
0.50167453 0.48046967 2.1400001
0.50222015 0.47755095 2.1270001
0.5058133 0.47755095 2.1270001
0.50629306 0.4746322 2.1140001
0.50986433 0.4746322 2.1140001
0.51343554 0.4746322 2.1140001
0.51700675 0.4746322 2.1140001
0.51737666 0.47171342 2.1010001
0.52092588 0.47171342 2.1010001
0.52772039 0.4746322 2.1140001
0.52802438 0.47171342 2.1010001
0.53157365 0.47171342 2.1010001
0.53181177 0.46879473 2.0880001
0.53867215 0.47171342 2.1010001
0.54222143 0.47171342 2.1010001
0.54577065 0.47171342 2.1010001
0.54931992 0.47171342 2.1010001
0.54944825 0.46879473 2.0880001
0.55297554 0.46879473 2.0880001
0.55996764 0.47171342 2.1010001
0.56351691 0.47171342 2.1010001
0.56355739 0.46879473 2.0880001
0.56708467 0.46879473 2.0880001
0.56743014 0.46048751 2.0510001
0.55782181 0.44454673 1.9800001
0.55804908 0.44207701 1.9690001
0.56137532 0.44207701 1.9690001
0.56470162 0.44207701 1.9690001
0.56802785 0.44207701 1.9690001
0.57135415 0.44207701 1.9690001
0.5714699 0.43960729 1.9580001
0.5747776 0.43960729 1.9580001
0.57808524 0.43960729 1.9580001
0.58139294 0.43960729 1.9580001
0.58470064 0.43960729 1.9580001
0.58800828 0.43960729 1.9580001
0.59131598 0.43960729 1.9580001
0.59462368 0.43960729 1.9580001
0.59793133 0.43960729 1.9580001
0.60123903 0.43960729 1.9580001
0.60115033 0.4371376 1.9470001
0.60102451 0.43466789 1.9360001
0.60086155 0.43219817 1.9250001
0.60411352 0.43219817 1.9250001
0.66699767 0.4746322 2.1140001
0.67056888 0.4746322 2.1140001
0.6741401 0.4746322 2.1140001
0.67771131 0.4746322 2.1140001
0.67709297 0.47171342 2.1010001
0.68064225 0.47171342 2.1010001
0.68842494 0.4746322 2.1140001
0.69199616 0.4746322 2.1140001
0.69556737 0.4746322 2.1140001
0.70343792 0.47755095 2.1270001
0.70703107 0.47755095 2.1270001
0.71062428 0.47755095 2.1270001
0.71421742 0.47755095 2.1270001
0.72219783 0.48046967 2.1400001
0.72581297 0.48046967 2.1400001
0.72942811 0.48046967 2.1400001
0.73304325 0.48046967 2.1400001
0.74113333 0.48338842 2.1530001
0.74477047 0.48338842 2.1530001
0.74840754 0.48338842 2.1530001
0.75693482 0.48653165 2.1670001
0.76059562 0.48653165 2.1670001
0.76425636 0.48653165 2.1670001
0.7679171 0.48653165 2.1670001
0.77157784 0.48653165 2.1670001
0.77523857 0.48653165 2.1670001
0.77386725 0.48338842 2.1530001
0.77750432 0.48338842 2.1530001
0.7811414 0.48338842 2.1530001
0.78477854 0.48338842 2.1530001
0.78841561 0.48338842 2.1530001
0.79205269 0.48338842 2.1530001
0.79568982 0.48338842 2.1530001
0.80452454 0.48653165 2.1670001
0.80818534 0.48653165 2.1670001
0.81184608 0.48653165 2.1670001
0.81550682 0.48653165 2.1670001
0.81916755 0.48653165 2.1670001
0.82282829 0.48653165 2.1670001
0.83182865 0.48967493 2.181
0.83014977 0.48653165 2.1670001
0.83381057 0.48653165 2.1670001
0.83747131 0.48653165 2.1670001
0.84113204 0.48653165 2.1670001
0.84845352 0.48653165 2.1670001
0.85595787 0.48046967 2.1400001
0.85435122 0.47755095 2.1270001
0.86318809 0.48046967 2.1400001
0.86153758 0.47755095 2.1270001
0.87041837 0.48046967 2.1400001
0.87403351 0.48046967 2.1400001
0.87764865 0.48046967 2.1400001
0.79346031 0.42052323 1.8730001
0.79662442 0.42052323 1.8730001
0.79978853 0.42052323 1.8730001
0.80295259 0.42052323 1.8730001
0.80181277 0.41827804 1.863
0.80496001 0.41827804 1.863
0.8081072 0.41827804 1.863
0.80689979 0.41603285 1.853
0.8100301 0.41603285 1.853
0.81316042 0.41603285 1.853
0.82069594 0.41827804 1.863
0.82384318 0.41827804 1.863
0.82699037 0.41827804 1.863
0.83013755 0.41827804 1.863
0.83775759 0.42052323 1.8730001
0.84092164 0.42052323 1.8730001
0.84408575 0.42052323 1.8730001
0.84724987 0.42052323 1.8730001
0.85041392 0.42052323 1.8730001
0.85357803 0.42052323 1.8730001
0.85674208 0.42052323 1.8730001
0.89312613 0.42276841 1.8830001
0.89630711 0.42276841 1.8830001
0.89948809 0.42276841 1.8830001
0.90794218 0.4252381 1.8940001
0.91114169 0.4252381 1.8940001
0.91434127 0.4252381 1.8940001
0.92238539 0.42748329 1.904
0.92560184 0.42748329 1.904
0.93418431 0.42995301 1.9150001
0.93525118 0.42748329 1.904
0.93846768 0.42748329 1.904
0.94168413 0.42748329 1.904
0.94490057 0.42748329 1.904
0.94811702 0.42748329 1.904
0.95133346 0.42748329 1.904
0.94402182 0.42276841 1.8830001
1.0122876 0.4371376 1.9470001
1.0098389 0.43466789 1.9360001
1.0131094 0.43466789 1.9360001
1.01638 0.43466789 1.9360001
1.0196505 0.43466789 1.9360001
0.50167453 0.48409063 2.1400001
0.50222015 0.48114991 2.1270001
0.50272185 0.47820917 2.1140001
0.50629306 0.47820917 2.1140001
0.50986433 0.47820917 2.1140001
0.51343554 0.47820917 2.1140001
0.51700675 0.47820917 2.1140001
0.51737666 0.47526839 2.1010001
0.52092588 0.47526839 2.1010001
0.52772039 0.47820917 2.1140001
0.52802438 0.47526839 2.1010001
0.53157365 0.47526839 2.1010001
0.53512287 0.47526839 2.1010001
0.53867215 0.47526839 2.1010001
0.54222143 0.47526839 2.1010001
0.54577065 0.47526839 2.1010001
0.54931992 0.47526839 2.1010001
0.54944825 0.47232768 2.0880001
0.55297554 0.47232768 2.0880001
0.55650282 0.47232768 2.0880001
0.5600301 0.47232768 2.0880001
0.56355739 0.47232768 2.0880001
0.56382561 0.46961313 2.0760002
0.56733263 0.46961313 2.0760002
0.56726503 0.46667242 2.0630002
0.56743014 0.46395788 2.0510001
0.57089496 0.46395788 2.0510001
0.5642783 0.4558143 2.0150001
0.56120253 0.45061144 1.9920001
0.56116664 0.44789696 1.9800001
0.56451148 0.44789696 1.9800001
0.56785637 0.44789696 1.9800001
0.56802785 0.44540861 1.9690001
0.57135415 0.44540861 1.9690001
0.5714699 0.4429203 1.9580001
0.5747776 0.4429203 1.9580001
0.57808524 0.4429203 1.9580001
0.58139294 0.4429203 1.9580001
0.58470064 0.4429203 1.9580001
0.58800828 0.4429203 1.9580001
0.59131598 0.4429203 1.9580001
0.59462368 0.4429203 1.9580001
0.59793133 0.4429203 1.9580001
0.60123903 0.4429203 1.9580001
0.60454673 0.4429203 1.9580001
0.60443944 0.44043201 1.9470001
0.60429502 0.43794367 1.9360001
0.60411352 0.43545535 1.9250001
0.66289598 0.47526839 2.1010001
0.66644526 0.47526839 2.1010001
0.6741401 0.47820917 2.1140001
0.67771131 0.47820917 2.1140001
0.67709297 0.47526839 2.1010001
0.68064225 0.47526839 2.1010001
0.68419147 0.47526839 2.1010001
0.69199616 0.47820917 2.1140001
0.69129002 0.47526839 2.1010001
0.69913858 0.47820917 2.1140001
0.70270979 0.47820917 2.1140001
0.70628107 0.47820917 2.1140001
0.70985228 0.47820917 2.1140001
0.71342349 0.47820917 2.1140001
0.7169947 0.47820917 2.1140001
0.72499698 0.48114991 2.1270001
0.72859013 0.48114991 2.1270001
0.73665833 0.48409063 2.1400001
0.74027348 0.48409063 2.1400001
0.74840754 0.4870314 2.1530001
0.75204468 0.4870314 2.1530001
0.76059562 0.49019831 2.1670001
0.75931883 0.4870314 2.1530001
0.76295596 0.4870314 2.1530001
0.76659304 0.4870314 2.1530001
0.77023011 0.4870314 2.1530001
0.7691946 0.48409063 2.1400001
0.77280974 0.48409063 2.1400001
0.77642488 0.48409063 2.1400001
0.78003997 0.48409063 2.1400001
0.78365511 0.48409063 2.1400001
0.78727025 0.48409063 2.1400001
0.79088539 0.48409063 2.1400001
0.7993269 0.4870314 2.1530001
0.80296403 0.4870314 2.1530001
0.80660111 0.4870314 2.1530001
0.81023818 0.4870314 2.1530001
0.81916755 0.49019831 2.1670001
0.82282829 0.49019831 2.1670001
0.82648903 0.49019831 2.1670001
0.83014977 0.49019831 2.1670001
0.83381057 0.49019831 2.1670001
0.83747131 0.49019831 2.1670001
0.84113204 0.49019831 2.1670001
0.83997858 0.48114991 2.1270001
0.84872758 0.48409063 2.1400001
0.85234272 0.48409063 2.1400001
0.85595787 0.48409063 2.1400001
0.85435122 0.48114991 2.1270001
0.86318809 0.48409063 2.1400001
0.86680323 0.48409063 2.1400001
0.87041837 0.48409063 2.1400001
0.87403351 0.48409063 2.1400001
0.87764865 0.48409063 2.1400001
0.79451561 0.42595452 1.8830001
0.79769659 0.42595452 1.8830001
0.80087757 0.42595452 1.8830001
0.79978853 0.42369241 1.8730001
0.80295259 0.42369241 1.8730001
0.8061167 0.42369241 1.8730001
0.80928075 0.42369241 1.8730001
0.8081072 0.42143029 1.863
0.81125438 0.42143029 1.863
0.8100301 0.4191682 1.853
0.81754875 0.42143029 1.863
0.82069594 0.42143029 1.863
0.82826531 0.42369241 1.8730001
0.82699037 0.42143029 1.863
0.83013755 0.42143029 1.863
0.83775759 0.42369241 1.8730001
0.84092164 0.42369241 1.8730001
0.84408575 0.42369241 1.8730001
0.84272635 0.42143029 1.863
0.84587353 0.42143029 1.863
0.88049269 0.42143029 1.863
0.89312613 0.42595452 1.8830001
0.89630711 0.42595452 1.8830001
0.9047426 0.42844284 1.8940001
0.90794218 0.42844284 1.8940001
0.91595244 0.43070492 1.904
0.91916889 0.43070492 1.904
0.92771423 0.43319327 1.9150001
0.93094927 0.43319327 1.9150001
0.93418431 0.43319327 1.9150001
0.93741935 0.43319327 1.9150001
0.9406544 0.43319327 1.9150001
0.93846768 0.43070492 1.904
0.94084084 0.42595452 1.8830001
0.9495365 0.42844284 1.8940001
0.9472028 0.42595452 1.8830001
1.0089985 0.44043201 1.9470001
1.0122876 0.44043201 1.9470001
1.0155767 0.44043201 1.9470001
1.024622 0.4429203 1.9580001
1.0279297 0.4429203 1.9580001
1.0312374 0.4429203 1.9580001
0.50167453 0.48771158 2.1400001
0.50222015 0.48474887 2.1270001
0.50272185 0.48178613 2.1140001
0.50629306 0.48178613 2.1140001
0.50986433 0.48178613 2.1140001
0.51027811 0.47882336 2.1010001
0.51382738 0.47882336 2.1010001
0.51737666 0.47882336 2.1010001
0.52092588 0.47882336 2.1010001
0.52772039 0.48178613 2.1140001
0.5312916 0.48178613 2.1140001
0.53157365 0.47882336 2.1010001
0.53512287 0.47882336 2.1010001
0.53867215 0.47882336 2.1010001
0.54222143 0.47882336 2.1010001
0.54577065 0.47882336 2.1010001
0.54931992 0.47882336 2.1010001
0.54944825 0.47586066 2.0880001
0.55297554 0.47586066 2.0880001
0.55650282 0.47586066 2.0880001
0.5600301 0.47586066 2.0880001
0.56355739 0.47586066 2.0880001
0.56708467 0.47586066 2.0880001
0.56733263 0.47312582 2.0760002
0.56726503 0.47016311 2.0630002
0.56743014 0.46742824 2.0510001
0.56421453 0.46195856 2.0270002
0.5642783 0.45922378 2.0150001
0.56430155 0.45648897 2.003
0.56456769 0.453982 1.9920001
0.56451148 0.45124719 1.9800001
0.56785637 0.45124719 1.9800001
0.56802785 0.44874021 1.9690001
0.5681622 0.4462333 1.9580001
0.5714699 0.4462333 1.9580001
0.5747776 0.4462333 1.9580001
0.57808524 0.4462333 1.9580001
0.58139294 0.4462333 1.9580001
0.58470064 0.4462333 1.9580001
0.58800828 0.4462333 1.9580001
0.59131598 0.4462333 1.9580001
0.59462368 0.4462333 1.9580001
0.59793133 0.4462333 1.9580001
0.60123903 0.4462333 1.9580001
0.60454673 0.4462333 1.9580001
0.60443944 0.44372639 1.9470001
0.59774017 0.43643349 1.9150001
0.60097522 0.43643349 1.9150001
0.65879428 0.47586066 2.0880001
0.66232157 0.47586066 2.0880001
0.66999447 0.47882336 2.1010001
0.67354375 0.47882336 2.1010001
0.67290342 0.47586066 2.0880001
0.6764307 0.47586066 2.0880001
0.67995799 0.47586066 2.0880001
0.68774074 0.47882336 2.1010001
0.68701261 0.47586066 2.0880001
0.6905399 0.47586066 2.0880001
0.69406718 0.47586066 2.0880001
0.69759446 0.47586066 2.0880001
0.70548701 0.47882336 2.1010001
0.70903623 0.47882336 2.1010001
0.71258551 0.47882336 2.1010001
0.72056592 0.48178613 2.1140001
0.72413713 0.48178613 2.1140001
0.73218334 0.48474887 2.1270001
0.74027348 0.48771158 2.1400001
0.74388862 0.48771158 2.1400001
0.75204468 0.49067435 2.1530001
0.75568175 0.49067435 2.1530001
0.75931883 0.49067435 2.1530001
0.76295596 0.49067435 2.1530001
0.76659304 0.49067435 2.1530001
0.76557946 0.48771158 2.1400001
0.7691946 0.48771158 2.1400001
0.76811504 0.48474887 2.1270001
0.77170825 0.48474887 2.1270001
0.7753014 0.48474887 2.1270001
0.78365511 0.48771158 2.1400001
0.78248775 0.48474887 2.1270001
0.79088539 0.48771158 2.1400001
0.79450053 0.48771158 2.1400001
0.79811567 0.48771158 2.1400001
0.80173081 0.48771158 2.1400001
0.81023818 0.49067435 2.1530001
0.81387532 0.49067435 2.1530001
0.82282829 0.49386495 2.1670001
0.82114947 0.49067435 2.1530001
0.83014977 0.49386495 2.1670001
0.83381057 0.49386495 2.1670001
0.84357172 0.48474887 2.1270001
0.84716487 0.48474887 2.1270001
0.85075808 0.48474887 2.1270001
0.85435122 0.48474887 2.1270001
0.85794443 0.48474887 2.1270001
0.86153758 0.48474887 2.1270001
0.86513078 0.48474887 2.1270001
0.86872393 0.48474887 2.1270001
0.87764865 0.48771158 2.1400001
0.79451561 0.42914063 1.8830001
0.79769659 0.42914063 1.8830001
0.80087757 0.42914063 1.8830001
0.80405855 0.42914063 1.8830001
0.80295259 0.42686161 1.8730001
0.8061167 0.42686161 1.8730001
0.80928075 0.42686161 1.8730001
0.8081072 0.42458257 1.863
0.81125438 0.42458257 1.863
0.81440157 0.42458257 1.863
0.81754875 0.42458257 1.863
0.82069594 0.42458257 1.863
0.82826531 0.42686161 1.8730001
0.82699037 0.42458257 1.863
0.83013755 0.42458257 1.863
0.83328474 0.42458257 1.863
0.83643192 0.42458257 1.863
0.83957911 0.42458257 1.863
0.84272635 0.42458257 1.863
0.84587353 0.42458257 1.863
0.88994515 0.42914063 1.8830001
0.89312613 0.42914063 1.8830001
0.89630711 0.42914063 1.8830001
0.90951955 0.43392658 1.904
0.912736 0.43392658 1.904
0.91595244 0.43392658 1.904
0.92447919 0.43643349 1.9150001
0.92771423 0.43643349 1.9150001
0.93094927 0.43643349 1.9150001
0.92881829 0.43392658 1.904
0.93203473 0.43392658 1.904
0.93525118 0.43392658 1.904
0.93846768 0.43392658 1.904
1.0057094 0.44372639 1.9470001
1.014699 0.4462333 1.9580001
1.0180067 0.4462333 1.9580001
1.0213144 0.4462333 1.9580001
1.0303783 0.44874021 1.9690001
1.0279297 0.4462333 1.9580001
0.50272185 0.4853631 2.1140001
0.50629306 0.4853631 2.1140001
0.50986433 0.4853631 2.1140001
0.51027811 0.48237833 2.1010001
0.51382738 0.48237833 2.1010001
0.51737666 0.48237833 2.1010001
0.52092588 0.48237833 2.1010001
0.52447516 0.48237833 2.1010001
0.52802438 0.48237833 2.1010001
0.52828449 0.47939363 2.0880001
0.53181177 0.47939363 2.0880001
0.53533906 0.47939363 2.0880001
0.53886634 0.47939363 2.0880001
0.54239368 0.47939363 2.0880001
0.54592097 0.47939363 2.0880001
0.54944825 0.47939363 2.0880001
0.55297554 0.47939363 2.0880001
0.55650282 0.47939363 2.0880001
0.5600301 0.47939363 2.0880001
0.56031859 0.47663847 2.0760002
0.56382561 0.47663847 2.0760002
0.56377995 0.47365376 2.0630002
0.56396538 0.4708986 2.0510001
0.56743014 0.4708986 2.0510001
0.56421453 0.46538833 2.0270002
0.5642783 0.46263322 2.0150001
0.56768227 0.46263322 2.0150001
0.56768525 0.45987812 2.003
0.56793278 0.45735252 1.9920001
0.57129788 0.45735252 1.9920001
0.56802785 0.45207185 1.9690001
0.57135415 0.45207185 1.9690001
0.57468039 0.45207185 1.9690001
0.57800663 0.45207185 1.9690001
0.57808524 0.44954631 1.9580001
0.58139294 0.44954631 1.9580001
0.58470064 0.44954631 1.9580001
0.58800828 0.44954631 1.9580001
0.59131598 0.44954631 1.9580001
0.59462368 0.44954631 1.9580001
0.59793133 0.44954631 1.9580001
0.60123903 0.44954631 1.9580001
0.60454673 0.44954631 1.9580001
0.60785437 0.44954631 1.9580001
0.61116207 0.44954631 1.9580001
0.64742136 0.47365376 2.0630002
0.65500808 0.47663847 2.0760002
0.6585151 0.47663847 2.0760002
0.66584885 0.47939363 2.0880001
0.66937613 0.47939363 2.0880001
0.66903615 0.47663847 2.0760002
0.67254317 0.47663847 2.0760002
0.67605019 0.47663847 2.0760002
0.68348533 0.47939363 2.0880001
0.68306422 0.47663847 2.0760002
0.68657124 0.47663847 2.0760002
0.69007826 0.47663847 2.0760002
0.69358528 0.47663847 2.0760002
0.69709229 0.47663847 2.0760002
0.70059931 0.47663847 2.0760002
0.70410633 0.47663847 2.0760002
0.71170366 0.47939363 2.0880001
0.719684 0.48237833 2.1010001
0.73218334 0.48834786 2.1270001
0.73577648 0.48834786 2.1270001
0.73936969 0.48834786 2.1270001
0.74750376 0.49133253 2.1400001
0.7511189 0.49133253 2.1400001
0.75473404 0.49133253 2.1400001
0.75834918 0.49133253 2.1400001
0.76196432 0.49133253 2.1400001
0.76092869 0.48834786 2.1270001
0.7645219 0.48834786 2.1270001
0.76811504 0.48834786 2.1270001
0.77170825 0.48834786 2.1270001
0.7753014 0.48834786 2.1270001
0.7788946 0.48834786 2.1270001
0.78248775 0.48834786 2.1270001
0.78608096 0.48834786 2.1270001
0.79450053 0.49133253 2.1400001
0.79811567 0.49133253 2.1400001
0.80173081 0.49133253 2.1400001
0.80534595 0.49133253 2.1400001
0.80896109 0.49133253 2.1400001
0.81257623 0.49133253 2.1400001
0.82114947 0.49431729 2.1530001
0.8247866 0.49431729 2.1530001
0.82842368 0.49431729 2.1530001
0.83841592 0.4853631 2.1140001
0.84198713 0.4853631 2.1140001
0.85075808 0.48834786 2.1270001
0.85435122 0.48834786 2.1270001
0.85794443 0.48834786 2.1270001
0.86153758 0.48834786 2.1270001
0.87041837 0.49133253 2.1400001
0.86872393 0.48834786 2.1270001
0.87764865 0.49133253 2.1400001
0.79595739 0.43485227 1.8940001
0.79451561 0.43232673 1.8830001
0.79769659 0.43232673 1.8830001
0.80087757 0.43232673 1.8830001
0.80405855 0.43232673 1.8830001
0.80295259 0.43003079 1.8730001
0.8061167 0.43003079 1.8730001
0.80928075 0.43003079 1.8730001
0.8081072 0.42773482 1.863
0.81125438 0.42773482 1.863
0.81440157 0.42773482 1.863
0.81754875 0.42773482 1.863
0.82069594 0.42773482 1.863
0.82826531 0.43003079 1.8730001
0.82699037 0.42773482 1.863
0.83013755 0.42773482 1.863
0.82881188 0.42543888 1.853
0.83643192 0.42773482 1.863
0.83957911 0.42773482 1.863
0.84272635 0.42773482 1.863
0.84587353 0.42773482 1.863
0.87085921 0.43232673 1.8830001
0.87404019 0.43232673 1.8830001
0.87722117 0.43232673 1.8830001
0.88040215 0.43232673 1.8830001
0.87889069 0.43003079 1.8730001
0.88205481 0.43003079 1.8730001
0.89514387 0.43485227 1.8940001
0.89834344 0.43485227 1.8940001
0.912736 0.43714821 1.904
0.91595244 0.43714821 1.904
0.91916889 0.43714821 1.904
0.92771423 0.43967375 1.9150001
0.93094927 0.43967375 1.9150001
0.93418431 0.43967375 1.9150001
0.93203473 0.43714821 1.904
0.9303391 0.43485227 1.8940001
0.92811692 0.43232673 1.8830001
0.99021584 0.44449523 1.9360001
0.9991312 0.4470208 1.9470001
1.0024203 0.4470208 1.9470001
1.0057094 0.4470208 1.9470001
1.0089985 0.4470208 1.9470001
1.0122876 0.4470208 1.9470001
1.0213144 0.44954631 1.9580001
1.024622 0.44954631 1.9580001
0.50272185 0.48894006 2.1140001
0.50629306 0.48894006 2.1140001
0.50986433 0.48894006 2.1140001
0.51027811 0.4859333 2.1010001
0.51382738 0.4859333 2.1010001
0.51737666 0.4859333 2.1010001
0.52092588 0.4859333 2.1010001
0.52447516 0.4859333 2.1010001
0.52802438 0.4859333 2.1010001
0.52828449 0.48292661 2.0880001
0.53181177 0.48292661 2.0880001
0.53533906 0.48292661 2.0880001
0.54222143 0.4859333 2.1010001
0.54239368 0.48292661 2.0880001
0.54592097 0.48292661 2.0880001
0.54944825 0.48292661 2.0880001
0.55297554 0.48292661 2.0880001
0.55650282 0.48292661 2.0880001
0.5600301 0.48292661 2.0880001
0.56031859 0.48015115 2.0760002
0.56029493 0.47714445 2.0630002
0.56377995 0.47714445 2.0630002
0.56396538 0.47436899 2.0510001
0.56411022 0.47159356 2.039
0.56087434 0.46604267 2.0150001
0.5642783 0.46604267 2.0150001
0.56768227 0.46604267 2.0150001
0.56768525 0.46326727 2.003
0.56793278 0.46072307 1.9920001
0.57129788 0.46072307 1.9920001
0.57120121 0.45794764 1.9800001
0.57135415 0.45540345 1.9690001
0.57468039 0.45540345 1.9690001
0.57800663 0.45540345 1.9690001
0.57808524 0.45285931 1.9580001
0.58139294 0.45285931 1.9580001
0.58470064 0.45285931 1.9580001
0.58800828 0.45285931 1.9580001
0.59131598 0.45285931 1.9580001
0.59462368 0.45285931 1.9580001
0.59793133 0.45285931 1.9580001
0.60123903 0.45285931 1.9580001
0.60454673 0.45285931 1.9580001
0.60785437 0.45285931 1.9580001
0.61116207 0.45285931 1.9580001
0.64742136 0.47714445 2.0630002
0.65500808 0.48015115 2.0760002
0.6585151 0.48015115 2.0760002
0.66584885 0.48292661 2.0880001
0.66937613 0.48292661 2.0880001
0.67290342 0.48292661 2.0880001
0.67254317 0.48015115 2.0760002
0.67605019 0.48015115 2.0760002
0.6795572 0.48015115 2.0760002
0.67878687 0.47714445 2.0630002
0.68227196 0.47714445 2.0630002
0.68575704 0.47714445 2.0630002
0.68924206 0.47714445 2.0630002
0.69272715 0.47714445 2.0630002
0.69621217 0.47714445 2.0630002
0.69969726 0.47714445 2.0630002
0.70761341 0.48015115 2.0760002
0.71523094 0.48292661 2.0880001
0.72323328 0.4859333 2.1010001
0.73127955 0.48894006 2.1140001
0.73485076 0.48894006 2.1140001
0.73842198 0.48894006 2.1140001
0.74199319 0.48894006 2.1140001
0.75014919 0.49194682 2.1270001
0.75374234 0.49194682 2.1270001
0.75733554 0.49194682 2.1270001
0.76092869 0.49194682 2.1270001
0.7645219 0.49194682 2.1270001
0.76342046 0.48894006 2.1140001
0.77170825 0.49194682 2.1270001
0.7753014 0.49194682 2.1270001
0.7788946 0.49194682 2.1270001
0.78248775 0.49194682 2.1270001
0.78608096 0.49194682 2.1270001
0.7896741 0.49194682 2.1270001
0.79326731 0.49194682 2.1270001
0.79686046 0.49194682 2.1270001
0.80534595 0.49495351 2.1400001
0.80896109 0.49495351 2.1400001
0.81257623 0.49495351 2.1400001
0.82114947 0.49796027 2.1530001
0.8247866 0.49796027 2.1530001
0.82842368 0.49796027 2.1530001
0.83747131 0.50119823 2.1670001
0.84113204 0.50119823 2.1670001
0.83841592 0.48894006 2.1140001
0.84198713 0.48894006 2.1140001
0.84555835 0.48894006 2.1140001
0.85435122 0.49194682 2.1270001
0.85794443 0.49194682 2.1270001
0.86153758 0.49194682 2.1270001
0.86513078 0.49194682 2.1270001
0.87231714 0.49194682 2.1270001
0.79595739 0.43805698 1.8940001
0.79915696 0.43805698 1.8940001
0.80235654 0.43805698 1.8940001
0.80087757 0.43551284 1.8830001
0.80405855 0.43551284 1.8830001
0.80723953 0.43551284 1.8830001
0.8061167 0.43319997 1.8730001
0.80928075 0.43319997 1.8730001
0.81244487 0.43319997 1.8730001
0.81125438 0.43088707 1.863
0.81440157 0.43088707 1.863
0.81754875 0.43088707 1.863
0.82069594 0.43088707 1.863
0.82384318 0.43088707 1.863
0.82699037 0.43088707 1.863
0.82568163 0.42857423 1.853
0.82881188 0.42857423 1.853
0.8319422 0.42857423 1.853
0.83957911 0.43088707 1.863
0.84272635 0.43088707 1.863
0.84587353 0.43088707 1.863
0.87274694 0.43805698 1.8940001
0.87085921 0.43551284 1.8830001
0.8791461 0.43805698 1.8940001
0.87722117 0.43551284 1.8830001
0.88040215 0.43551284 1.8830001
0.88358313 0.43551284 1.8830001
0.88676417 0.43551284 1.8830001
0.89514387 0.43805698 1.8940001
0.89834344 0.43805698 1.8940001
0.9180091 0.44291401 1.9150001
0.92124414 0.44291401 1.9150001
0.92447919 0.44291401 1.9150001
0.92771423 0.44291401 1.9150001
0.93094927 0.44291401 1.9150001
0.93418431 0.44291401 1.9150001
0.93203473 0.44036984 1.904
0.9303391 0.43805698 1.8940001
0.93353868 0.43805698 1.8940001
0.98694533 0.44777101 1.9360001
0.99021584 0.44777101 1.9360001
0.9991312 0.45031518 1.9470001
1.0080836 0.45285931 1.9580001
1.0057094 0.45031518 1.9470001
1.0089985 0.45031518 1.9470001
1.0180067 0.45285931 1.9580001
1.0213144 0.45285931 1.9580001
1.024622 0.45285931 1.9580001
0.50317961 0.48948827 2.1010001
0.50672889 0.48948827 2.1010001
0.51027811 0.48948827 2.1010001
0.51382738 0.48948827 2.1010001
0.51737666 0.48948827 2.1010001
0.52092588 0.48948827 2.1010001
0.52447516 0.48948827 2.1010001
0.52802438 0.48948827 2.1010001
0.52828449 0.48645958 2.0880001
0.53181177 0.48645958 2.0880001
0.53533906 0.48645958 2.0880001
0.53886634 0.48645958 2.0880001
0.54239368 0.48645958 2.0880001
0.54592097 0.48645958 2.0880001
0.54944825 0.48645958 2.0880001
0.54979753 0.4836638 2.0760002
0.55330455 0.4836638 2.0760002
0.55681157 0.4836638 2.0760002
0.55680984 0.48063511 2.0630002
0.56029493 0.48063511 2.0630002
0.56050056 0.47783935 2.0510001
0.56066573 0.47504362 2.039
0.56411022 0.47504362 2.039
0.56421453 0.47224784 2.0270002
0.5642783 0.46945211 2.0150001
0.56768227 0.46945211 2.0150001
0.56768525 0.46665642 2.003
0.56793278 0.4640936 1.9920001
0.57129788 0.4640936 1.9920001
0.57120121 0.46129787 1.9800001
0.57454604 0.46129787 1.9800001
0.57468039 0.45873508 1.9690001
0.57800663 0.45873508 1.9690001
0.57808524 0.45617235 1.9580001
0.58139294 0.45617235 1.9580001
0.58470064 0.45617235 1.9580001
0.58800828 0.45617235 1.9580001
0.59131598 0.45617235 1.9580001
0.59462368 0.45617235 1.9580001
0.59793133 0.45617235 1.9580001
0.60123903 0.45617235 1.9580001
0.60454673 0.45617235 1.9580001
0.6112693 0.45873508 1.9690001
0.61459553 0.45873508 1.9690001
0.64365548 0.47783935 2.0510001
0.65090644 0.48063511 2.0630002
0.6585151 0.4836638 2.0760002
0.66202211 0.4836638 2.0760002
0.66937613 0.48645958 2.0880001
0.66903615 0.4836638 2.0760002
0.67254317 0.4836638 2.0760002
0.67181677 0.48063511 2.0630002
0.67530185 0.48063511 2.0630002
0.67878687 0.48063511 2.0630002
0.6783033 0.47783935 2.0510001
0.68176812 0.47783935 2.0510001
0.68523288 0.47783935 2.0510001
0.6886977 0.47783935 2.0510001
0.69216245 0.47783935 2.0510001
0.69969726 0.48063511 2.0630002
0.70318228 0.48063511 2.0630002
0.71112043 0.4836638 2.0760002
0.71875823 0.48645958 2.0880001
0.72228551 0.48645958 2.0880001
0.72581279 0.48645958 2.0880001
0.72934008 0.48645958 2.0880001
0.73743027 0.48948827 2.1010001
0.7455644 0.49251702 2.1140001
0.74913561 0.49251702 2.1140001
0.75270683 0.49251702 2.1140001
0.75627804 0.49251702 2.1140001
0.75984925 0.49251702 2.1140001
0.76342046 0.49251702 2.1140001
0.76699167 0.49251702 2.1140001
0.7753014 0.49554577 2.1270001
0.7788946 0.49554577 2.1270001
0.77770531 0.49251702 2.1140001
0.78127652 0.49251702 2.1140001
0.78484774 0.49251702 2.1140001
0.79326731 0.49554577 2.1270001
0.79686046 0.49554577 2.1270001
0.8004536 0.49554577 2.1270001
0.80404681 0.49554577 2.1270001
0.80763996 0.49554577 2.1270001
0.81619138 0.49857447 2.1400001
0.81980646 0.49857447 2.1400001
0.8234216 0.49857447 2.1400001
0.83206075 0.50160319 2.1530001
0.83569789 0.50160319 2.1530001
0.83841592 0.49251702 2.1140001
0.84198713 0.49251702 2.1140001
0.84555835 0.49251702 2.1140001
0.84912956 0.49251702 2.1140001
0.85270077 0.49251702 2.1140001
0.85627198 0.49251702 2.1140001
0.86513078 0.49554577 2.1270001
0.87231714 0.49554577 2.1270001
0.79595739 0.44126171 1.8940001
0.79915696 0.44126171 1.8940001
0.80235654 0.44126171 1.8940001
0.80087757 0.43869892 1.8830001
0.80405855 0.43869892 1.8830001
0.80723953 0.43869892 1.8830001
0.8061167 0.43636915 1.8730001
0.80928075 0.43636915 1.8730001
0.81244487 0.43636915 1.8730001
0.81125438 0.43403935 1.863
0.81440157 0.43403935 1.863
0.81754875 0.43403935 1.863
0.8251012 0.43636915 1.8730001
0.82826531 0.43636915 1.8730001
0.82699037 0.43403935 1.863
0.83013755 0.43403935 1.863
0.82881188 0.43170959 1.853
0.8319422 0.43170959 1.853
0.83957911 0.43403935 1.863
0.84272635 0.43403935 1.863
0.86767823 0.43869892 1.8830001
0.87594652 0.44126171 1.8940001
0.8791461 0.44126171 1.8940001
0.87722117 0.43869892 1.8830001
0.88040215 0.43869892 1.8830001
0.88358313 0.43869892 1.8830001
0.88676417 0.43869892 1.8830001
0.89514387 0.44126171 1.8940001
0.89834344 0.44126171 1.8940001
0.91153902 0.44615427 1.9150001
0.91477406 0.44615427 1.9150001
0.9180091 0.44615427 1.9150001
0.92124414 0.44615427 1.9150001
0.92447919 0.44615427 1.9150001
0.93255866 0.44848403 1.9250001
0.93581057 0.44848403 1.9250001
0.93418431 0.44615427 1.9150001
0.93741935 0.44615427 1.9150001
0.9303391 0.44126171 1.8940001
0.93353868 0.44126171 1.8940001
0.98694533 0.45104679 1.9360001
0.99021584 0.45104679 1.9360001
0.9991312 0.45360959 1.9470001
1.0080836 0.45617235 1.9580001
1.0057094 0.45360959 1.9470001
1.0089985 0.45360959 1.9470001
1.0065684 0.45104679 1.9360001
0.50317961 0.49304324 2.1010001
0.50672889 0.49304324 2.1010001
0.50712073 0.48999256 2.0880001
0.51064801 0.48999256 2.0880001
0.51417536 0.48999256 2.0880001
0.52092588 0.49304324 2.1010001
0.52447516 0.49304324 2.1010001
0.52802438 0.49304324 2.1010001
0.52828449 0.48999256 2.0880001
0.53181177 0.48999256 2.0880001
0.53533906 0.48999256 2.0880001
0.53886634 0.48999256 2.0880001
0.54239368 0.48999256 2.0880001
0.54592097 0.48999256 2.0880001
0.54944825 0.48999256 2.0880001
0.54979753 0.48717648 2.0760002
0.55330455 0.48717648 2.0760002
0.55681157 0.48717648 2.0760002
0.55680984 0.48412579 2.0630002
0.56029493 0.48412579 2.0630002
0.56050056 0.48130971 2.0510001
0.56066573 0.47849369 2.039
0.5607903 0.47567761 2.0270002
0.56421453 0.47567761 2.0270002
0.5642783 0.47286159 2.0150001
0.56768227 0.47286159 2.0150001
0.56768525 0.47004557 2.003
0.56793278 0.46746415 1.9920001
0.56785637 0.46464813 1.9800001
0.57120121 0.46464813 1.9800001
0.57135415 0.46206671 1.9690001
0.57468039 0.46206671 1.9690001
0.57800663 0.46206671 1.9690001
0.58133292 0.46206671 1.9690001
0.58465916 0.46206671 1.9690001
0.58470064 0.45948535 1.9580001
0.58800828 0.45948535 1.9580001
0.59131598 0.45948535 1.9580001
0.59462368 0.45948535 1.9580001
0.59793133 0.45948535 1.9580001
0.60123903 0.45948535 1.9580001
0.607943 0.46206671 1.9690001
0.6112693 0.46206671 1.9690001
0.62520814 0.47004557 2.003
0.63988954 0.47849369 2.039
0.65090644 0.48412579 2.0630002
0.65439147 0.48412579 2.0630002
0.66202211 0.48717648 2.0760002
0.66552913 0.48717648 2.0760002
0.66903615 0.48717648 2.0760002
0.66833174 0.48412579 2.0630002
0.67181677 0.48412579 2.0630002
0.67530185 0.48412579 2.0630002
0.67483854 0.48130971 2.0510001
0.6783033 0.48130971 2.0510001
0.6777792 0.47849369 2.039
0.68122375 0.47849369 2.039
0.6886977 0.48130971 2.0510001
0.69216245 0.48130971 2.0510001
0.69562727 0.48130971 2.0510001
0.70318228 0.48412579 2.0630002
0.70666736 0.48412579 2.0630002
0.71462744 0.48717648 2.0760002
0.71813446 0.48717648 2.0760002
0.72164148 0.48717648 2.0760002
0.7251485 0.48717648 2.0760002
0.73286736 0.48999256 2.0880001
0.73639464 0.48999256 2.0880001
0.74452877 0.49304324 2.1010001
0.74807805 0.49304324 2.1010001
0.75627804 0.49609399 2.1140001
0.75984925 0.49609399 2.1140001
0.76342046 0.49609399 2.1140001
0.76699167 0.49609399 2.1140001
0.7753014 0.49914473 2.1270001
0.7788946 0.49914473 2.1270001
0.77770531 0.49609399 2.1140001
0.78127652 0.49609399 2.1140001
0.78484774 0.49609399 2.1140001
0.79326731 0.49914473 2.1270001
0.79686046 0.49914473 2.1270001
0.8004536 0.49914473 2.1270001
0.80404681 0.49914473 2.1270001
0.80763996 0.49914473 2.1270001
0.81619138 0.50219542 2.1400001
0.81980646 0.50219542 2.1400001
0.82842368 0.50524616 2.1530001
0.83206075 0.50524616 2.1530001
0.84198713 0.49609399 2.1140001
0.84555835 0.49609399 2.1140001
0.84912956 0.49609399 2.1140001
0.85270077 0.49609399 2.1140001
0.85627198 0.49609399 2.1140001
0.85984319 0.49609399 2.1140001
0.80015993 0.44681314 1.904
0.80337644 0.44681314 1.904
0.80235654 0.44446641 1.8940001
0.80555612 0.44446641 1.8940001
0.80405855 0.44188502 1.8830001
0.80723953 0.44188502 1.8830001
0.81042051 0.44188502 1.8830001
0.81360149 0.44188502 1.8830001
0.81244487 0.43953833 1.8730001
0.81560898 0.43953833 1.8730001
0.81877303 0.43953833 1.8730001
0.82193714 0.43953833 1.8730001
0.8251012 0.43953833 1.8730001
0.82826531 0.43953833 1.8730001
0.82699037 0.43719161 1.863
0.83013755 0.43719161 1.863
0.82881188 0.43484491 1.853
0.83643192 0.43719161 1.863
0.83957911 0.43719161 1.863
0.87274694 0.44446641 1.8940001
0.87594652 0.44446641 1.8940001
0.8791461 0.44446641 1.8940001
0.87722117 0.44188502 1.8830001
0.88040215 0.44188502 1.8830001
0.88358313 0.44188502 1.8830001
0.88676417 0.44188502 1.8830001
0.89514387 0.44446641 1.8940001
0.9030866 0.44681314 1.904
0.91153902 0.44939452 1.9150001
0.91477406 0.44939452 1.9150001
0.9180091 0.44939452 1.9150001
0.92124414 0.44939452 1.9150001
0.92447919 0.44939452 1.9150001
0.93255866 0.45174122 1.9250001
0.93581057 0.45174122 1.9250001
0.95273602 0.44446641 1.8940001
0.9559356 0.44446641 1.8940001
0.97300476 0.44939452 1.9150001
0.9762398 0.44939452 1.9150001
0.98458958 0.45174122 1.9250001
0.99348634 0.45432258 1.9360001
0.99675685 0.45432258 1.9360001
1.0000274 0.45432258 1.9360001
1.0032979 0.45432258 1.9360001
1.0065684 0.45432258 1.9360001
0.50006616 0.49352553 2.0880001
0.50359344 0.49352553 2.0880001
0.50712073 0.49352553 2.0880001
0.51064801 0.49352553 2.0880001
0.51417536 0.49352553 2.0880001
0.51770264 0.49352553 2.0880001
0.52122992 0.49352553 2.0880001
0.52475721 0.49352553 2.0880001
0.52828449 0.49352553 2.0880001
0.53181177 0.49352553 2.0880001
0.53533906 0.49352553 2.0880001
0.53886634 0.49352553 2.0880001
0.53927642 0.49068916 2.0760002
0.54278344 0.49068916 2.0760002
0.54629052 0.49068916 2.0760002
0.54979753 0.49068916 2.0760002
0.55330455 0.49068916 2.0760002
0.55681157 0.49068916 2.0760002
0.55680984 0.48761645 2.0630002
0.5570358 0.48478007 2.0510001
0.56050056 0.48478007 2.0510001
0.56066573 0.48194376 2.039
0.5607903 0.47910738 2.0270002
0.56087434 0.47627103 2.0150001
0.5642783 0.47627103 2.0150001
0.56430155 0.47343472 2.003
0.56768525 0.47343472 2.003
0.57106894 0.47343472 2.003
0.56785637 0.46799836 1.9800001
0.57120121 0.46799836 1.9800001
0.57135415 0.46539831 1.9690001
0.57468039 0.46539831 1.9690001
0.57800663 0.46539831 1.9690001
0.58133292 0.46539831 1.9690001
0.58465916 0.46539831 1.9690001
0.58470064 0.46279836 1.9580001
0.58800828 0.46279836 1.9580001
0.59131598 0.46279836 1.9580001
0.59462368 0.46279836 1.9580001
0.59793133 0.46279836 1.9580001
0.60461676 0.46539831 1.9690001
0.607943 0.46539831 1.9690001
0.61468416 0.46799836 1.9800001
0.62520814 0.47343472 2.003
0.64365548 0.48478007 2.0510001
0.64712024 0.48478007 2.0510001
0.65439147 0.48761645 2.0630002
0.65787655 0.48761645 2.0630002
0.66136158 0.48761645 2.0630002
0.66484666 0.48761645 2.0630002
0.66833174 0.48761645 2.0630002
0.66790897 0.48478007 2.0510001
0.67137378 0.48478007 2.0510001
0.67483854 0.48478007 2.0510001
0.6783033 0.48478007 2.0510001
0.6777792 0.48194376 2.039
0.68122375 0.48194376 2.039
0.6886977 0.48478007 2.0510001
0.69216245 0.48478007 2.0510001
0.69562727 0.48478007 2.0510001
0.69909203 0.48478007 2.0510001
0.70666736 0.48761645 2.0630002
0.71462744 0.49068916 2.0760002
0.71813446 0.49068916 2.0760002
0.72164148 0.49068916 2.0760002
0.7251485 0.49068916 2.0760002
0.72865552 0.49068916 2.0760002
0.73216254 0.49068916 2.0760002
0.73992199 0.49352553 2.0880001
0.74344927 0.49352553 2.0880001
0.75162727 0.49659821 2.1010001
0.75984925 0.49967095 2.1140001
0.76342046 0.49967095 2.1140001
0.76699167 0.49967095 2.1140001
0.77056289 0.49967095 2.1140001
0.7741341 0.49967095 2.1140001
0.77770531 0.49967095 2.1140001
0.78127652 0.49967095 2.1140001
0.78002131 0.49659821 2.1010001
0.78841895 0.49967095 2.1140001
0.79199016 0.49967095 2.1140001
0.79556137 0.49967095 2.1140001
0.79913259 0.49967095 2.1140001
0.8027038 0.49967095 2.1140001
0.81123316 0.50274372 2.1270001
0.81482631 0.50274372 2.1270001
0.81841952 0.50274372 2.1270001
0.84555835 0.49967095 2.1140001
0.84912956 0.49967095 2.1140001
0.85270077 0.49967095 2.1140001
