# .PCD v0.7 - Point Cloud Data file format
VERSION 0.7
FIELDS x y z
SIZE 4 4 4
TYPE F F F
COUNT 1 1 1
WIDTH 1473
HEIGHT 1
VIEWPOINT 0 0 0 1 0 0 0
POINTS 1473
DATA ascii
-0.23610456 0.0069763092 1.5320001
-0.23351654 0.0069763092 1.5320001
-0.23092851 0.0069763092 1.5320001
-0.22834048 0.0069763092 1.5320001
-0.22575244 0.0069763092 1.5320001
-0.2241841 0.0070081851 1.539
-0.22158425 0.0070081851 1.539
-0.21898438 0.0070081851 1.539
-0.21638453 0.0070081851 1.539
-0.21475706 0.0070400611 1.5460001
-0.21214537 0.0070400611 1.5460001
-0.21048242 0.0070719374 1.5530001
-0.20785891 0.0070719374 1.5530001
-0.20523541 0.0070719374 1.5530001
-0.20352516 0.0071038133 1.5600001
-0.20179124 0.0071356893 1.567
-0.19914408 0.0071356893 1.567
-0.19649692 0.0071356893 1.567
-0.19471572 0.0071675656 1.5740001
-0.19205675 0.0071675656 1.5740001
-0.19024006 0.0071994415 1.5810001
-0.83864027 0.0097433915 1.5600001
-0.83225363 0.0096996706 1.5530001
-0.83336961 0.0097433915 1.5600001
-0.83073431 0.0097433915 1.5600001
-0.71857667 0.0084817465 1.358
-0.71048057 0.0084130438 1.3470001
-0.70820504 0.0084130438 1.3470001
-0.70854992 0.0084442729 1.3520001
-0.7094003 0.0084817465 1.358
-0.70398206 0.0084442729 1.3520001
-0.70169806 0.0084442729 1.3520001
-0.69941413 0.0084442729 1.3520001
-0.69713014 0.0084442729 1.3520001
-0.69792986 0.0084817465 1.358
-0.69256228 0.0084442729 1.3520001
-0.69334167 0.0084817465 1.358
-0.69104761 0.0084817465 1.358
-0.68875349 0.0084817465 1.358
-0.68645942 0.0084817465 1.358
-0.6841653 0.0084817465 1.358
-0.68187124 0.0084817465 1.358
-0.67957711 0.0084817465 1.358
-0.67728305 0.0084817465 1.358
-0.67498893 0.0084817465 1.358
-0.67269486 0.0084817465 1.358
-0.67286915 0.0085129766 1.363
-0.67056656 0.0085129766 1.363
-0.66581255 0.0084817465 1.358
-0.6659615 0.0085129766 1.363
-0.66365898 0.0085129766 1.363
-0.66135645 0.0085129766 1.363
-0.65663624 0.0084817465 1.358
-0.65675133 0.0085129766 1.363
-0.65444881 0.0085129766 1.363
-0.65214628 0.0085129766 1.363
-0.64984375 0.0085129766 1.363
-0.64754122 0.0085129766 1.363
-0.6452387 0.0085129766 1.363
-0.64293611 0.0085129766 1.363
-0.64580375 0.0085816793 1.3740001
-0.64348263 0.0085816793 1.3740001
-0.63836169 0.0085442048 1.368
-0.63884038 0.0085816793 1.3740001
-0.63373971 0.0085442048 1.368
-0.63142872 0.0085442048 1.368
-0.62911773 0.0085442048 1.368
-0.62680674 0.0085442048 1.368
-0.62449574 0.0085442048 1.368
-0.62491369 0.0085816793 1.3740001
-0.62259257 0.0085816793 1.3740001
-0.62027144 0.0085816793 1.3740001
-0.61795032 0.0085816793 1.3740001
-0.6156292 0.0085816793 1.3740001
-0.61553991 0.0086129075 1.3790001
-0.61321038 0.0086129075 1.3790001
-0.61088079 0.0086129075 1.3790001
-0.61119902 0.008650382 1.3850001
-0.6088593 0.008650382 1.3850001
-0.60651958 0.008650382 1.3850001
-0.60417992 0.008650382 1.3850001
-0.59923297 0.0086129075 1.3790001
-0.59950048 0.008650382 1.3850001
-0.59716082 0.008650382 1.3850001
-0.5948211 0.008650382 1.3850001
-0.59248137 0.008650382 1.3850001
-0.59014171 0.008650382 1.3850001
-0.58780199 0.008650382 1.3850001
-0.58546227 0.008650382 1.3850001
-0.58522773 0.0086816112 1.3900001
-0.58078289 0.008650382 1.3850001
-0.57844317 0.008650382 1.3850001
-0.57818329 0.0086816112 1.3900001
-0.57583517 0.0086816112 1.3900001
-0.57843792 0.0087565612 1.4020001
-0.57606953 0.0087565612 1.4020001
-0.57370108 0.0087565612 1.4020001
-0.57133269 0.0087565612 1.4020001
-0.56896424 0.0087565612 1.4020001
-0.56659585 0.0087565612 1.4020001
-0.5642274 0.0087565612 1.4020001
-0.56185901 0.0087565612 1.4020001
-0.55949056 0.0087565612 1.4020001
-0.55712217 0.0087565612 1.4020001
-0.55475372 0.0087565612 1.4020001
-0.55238533 0.0087565612 1.4020001
-0.55001688 0.0087565612 1.4020001
-0.54960161 0.0087877894 1.4070001
-0.54722476 0.0087877894 1.4070001
-0.54484785 0.0087877894 1.4070001
-0.54247099 0.0087877894 1.4070001
-0.54009414 0.0087877894 1.4070001
-0.53771728 0.0087877894 1.4070001
-0.53534037 0.0087877894 1.4070001
-0.53296351 0.0087877894 1.4070001
-0.53058666 0.0087877894 1.4070001
-0.52820981 0.0087877894 1.4070001
-0.52583295 0.0087877894 1.4070001
-0.52345604 0.0087877894 1.4070001
-0.52107918 0.0087877894 1.4070001
-0.51870233 0.0087877894 1.4070001
-0.52293092 0.0089002131 1.4250001
-0.51833194 0.0088627385 1.419
-0.51593482 0.0088627385 1.419
-0.51353765 0.0088627385 1.419
-0.51114053 0.0088627385 1.419
-0.50874341 0.0088627385 1.419
-0.50634623 0.0088627385 1.419
-0.50394911 0.0088627385 1.419
-0.50155199 0.0088627385 1.419
-0.49915484 0.0088627385 1.419
-0.49885815 0.0089002131 1.4250001
-0.49645087 0.0089002131 1.4250001
-0.49612379 0.0089376885 1.4310001
-0.49163631 0.0089002131 1.4250001
-0.48922905 0.0089002131 1.4250001
-0.49092132 0.0089751622 1.437
-0.48441449 0.0089002131 1.4250001
-0.48606622 0.0089751622 1.437
-0.48363867 0.0089751622 1.437
-0.48121113 0.0089751622 1.437
-0.47878358 0.0089751622 1.437
-0.47635603 0.0089751622 1.437
-0.47392848 0.0089751622 1.437
-0.47150093 0.0089751622 1.437
-0.46907339 0.0089751622 1.437
-0.46859425 0.0090126367 1.4430001
-0.46421832 0.0089751622 1.437
-0.46179077 0.0089751622 1.437
-0.45936322 0.0089751622 1.437
-0.45693567 0.0089751622 1.437
-0.45450813 0.0089751622 1.437
-0.45396817 0.0090126367 1.4430001
-0.45153049 0.0090126367 1.4430001
-0.44909281 0.0090126367 1.4430001
-0.44665512 0.0090126367 1.4430001
-0.44421744 0.0090126367 1.4430001
-0.44177976 0.0090126367 1.4430001
-0.43934208 0.0090126367 1.4430001
-0.43872103 0.0090501113 1.4490001
-0.43627322 0.0090501113 1.4490001
-0.4338254 0.0090501113 1.4490001
-0.43137759 0.0090501113 1.4490001
-0.42892978 0.0090501113 1.4490001
-0.42824793 0.0090875858 1.455
-0.42578995 0.0090875858 1.455
-0.42333201 0.0090875858 1.455
-0.42087406 0.0090875858 1.455
-0.41841611 0.0090875858 1.455
-0.41767344 0.0091250604 1.4610001
-0.41520533 0.0091250604 1.4610001
-0.41104224 0.0090875858 1.455
-0.41026917 0.0091250604 1.4610001
-0.4094758 0.009162535 1.4670001
-0.40699759 0.009162535 1.4670001
-0.40451938 0.009162535 1.4670001
-0.40039679 0.0091250604 1.4610001
-0.39792871 0.0091250604 1.4610001
-0.39546064 0.0091250604 1.4610001
-0.39299253 0.0091250604 1.4610001
-0.39052445 0.0091250604 1.4610001
-0.38805634 0.0091250604 1.4610001
-0.38558826 0.0091250604 1.4610001
-0.38312018 0.0091250604 1.4610001
-0.38065207 0.0091250604 1.4610001
-0.37973711 0.009162535 1.4670001
-0.37571591 0.0091250604 1.4610001
-0.37478065 0.009162535 1.4670001
-0.37230241 0.009162535 1.4670001
-0.3698242 0.009162535 1.4670001
-0.36734599 0.009162535 1.4670001
-0.36636004 0.0092000104 1.473
-0.36387169 0.0092000104 1.473
-0.36138332 0.0092000104 1.473
-0.35889497 0.0092000104 1.473
-0.35810032 0.0092437305 1.48
-0.35560015 0.0092437305 1.48
-0.35309994 0.0092437305 1.48
-0.35059977 0.0092437305 1.48
-0.34951079 0.009281205 1.4860001
-0.34700045 0.009281205 1.4860001
-0.34309921 0.0092437305 1.48
-0.34197983 0.009281205 1.4860001
-0.33946949 0.009281205 1.4860001
-0.33695918 0.009281205 1.4860001
-0.33444884 0.009281205 1.4860001
-0.33193853 0.009281205 1.4860001
-0.3294282 0.009281205 1.4860001
-0.32691789 0.009281205 1.4860001
-0.32440755 0.009281205 1.4860001
-0.32189724 0.009281205 1.4860001
-0.3193869 0.009281205 1.4860001
-0.31687659 0.009281205 1.4860001
-0.31436625 0.009281205 1.4860001
-0.31185594 0.009281205 1.4860001
-0.3093456 0.009281205 1.4860001
-0.30683529 0.009281205 1.4860001
-0.30432498 0.009281205 1.4860001
-0.30303326 0.0093186786 1.4920001
-0.30051282 0.0093186786 1.4920001
-0.29799235 0.0093186786 1.4920001
-0.29685816 0.0093623996 1.4990001
-0.29432589 0.0093623996 1.4990001
-0.29179358 0.0093623996 1.4990001
-0.28926131 0.0093623996 1.4990001
-0.28672904 0.0093623996 1.4990001
-0.28552389 0.0094061196 1.506
-0.28297979 0.0094061196 1.506
-0.28043568 0.0094061196 1.506
-0.27789155 0.0094061196 1.506
-0.27534744 0.0094061196 1.506
-0.2738902 0.0094435951 1.5120001
-0.27133596 0.0094435951 1.5120001
-0.26878172 0.0094435951 1.5120001
-0.26622748 0.0094435951 1.5120001
-0.26367322 0.0094435951 1.5120001
-0.26111898 0.0094435951 1.5120001
-0.25976178 0.0094873151 1.5190001
-0.25719571 0.0094873151 1.5190001
-0.25462964 0.0094873151 1.5190001
-0.25206357 0.0094873151 1.5190001
-0.24949749 0.0094873151 1.5190001
-0.24790682 0.0095247896 1.5250001
-0.2453306 0.0095247896 1.5250001
-0.2427544 0.0095247896 1.5250001
-0.2401782 0.0095247896 1.5250001
-0.2386926 0.0095685096 1.5320001
-0.23610456 0.0095685096 1.5320001
-0.23351654 0.0095685096 1.5320001
-0.23092851 0.0095685096 1.5320001
-0.22834048 0.0095685096 1.5320001
-0.22575244 0.0095685096 1.5320001
-0.2241841 0.0096122306 1.539
-0.22158425 0.0096122306 1.539
-0.21898438 0.0096122306 1.539
-0.21638453 0.0096122306 1.539
-0.21475706 0.0096559506 1.5460001
-0.21310592 0.0096996706 1.5530001
-0.21048242 0.0096996706 1.5530001
-0.20879582 0.0097433915 1.5600001
-0.20616049 0.0097433915 1.5600001
-0.20352516 0.0097433915 1.5600001
-0.20179124 0.0097871115 1.567
-0.19914408 0.0097871115 1.567
-0.19649692 0.0097871115 1.567
-0.19384977 0.0097871115 1.567
-0.19205675 0.0098308316 1.5740001
-0.18855545 0.0097871115 1.567
-0.18673877 0.0098308316 1.5740001
-0.83111399 0.01227184 1.5460001
-0.82475108 0.012216276 1.539
-0.82215118 0.012216276 1.539
-0.81955135 0.012216276 1.539
-0.72087073 0.010779534 1.358
-0.71857667 0.010779534 1.358
-0.71311784 0.010731907 1.3520001
-0.71083391 0.010731907 1.3520001
-0.70854992 0.010731907 1.3520001
-0.7094003 0.010779534 1.358
-0.70710623 0.010779534 1.358
-0.70481211 0.010779534 1.358
-0.69941413 0.010731907 1.3520001
-0.70022392 0.010779534 1.358
-0.69792986 0.010779534 1.358
-0.69563574 0.010779534 1.358
-0.69334167 0.010779534 1.358
-0.69104761 0.010779534 1.358
-0.68875349 0.010779534 1.358
-0.68645942 0.010779534 1.358
-0.6841653 0.010779534 1.358
-0.68187124 0.010779534 1.358
-0.67957711 0.010779534 1.358
-0.67728305 0.010779534 1.358
-0.6774742 0.010819223 1.363
-0.67517167 0.010819223 1.363
-0.67040074 0.010779534 1.358
-0.66810668 0.010779534 1.358
-0.66581255 0.010779534 1.358
-0.66351849 0.010779534 1.358
-0.66122442 0.010779534 1.358
-0.66135645 0.010819223 1.363
-0.65905392 0.010819223 1.363
-0.65675133 0.010819223 1.363
-0.65444881 0.010819223 1.363
-0.65214628 0.010819223 1.363
-0.64984375 0.010819223 1.363
-0.64754122 0.010819223 1.363
-0.6452387 0.010819223 1.363
-0.64293611 0.010819223 1.363
-0.64580375 0.010906539 1.3740001
-0.64348263 0.010906539 1.3740001
-0.63836169 0.010858911 1.368
-0.63884038 0.010906539 1.3740001
-0.63373971 0.010858911 1.368
-0.63419813 0.010906539 1.3740001
-0.63187701 0.010906539 1.3740001
-0.62955588 0.010906539 1.3740001
-0.62723482 0.010906539 1.3740001
-0.62491369 0.010906539 1.3740001
-0.62259257 0.010906539 1.3740001
-0.61756283 0.010858911 1.368
-0.61525184 0.010858911 1.368
-0.6156292 0.010906539 1.3740001
-0.61330807 0.010906539 1.3740001
-0.61098695 0.010906539 1.3740001
-0.61088079 0.010946227 1.3790001
-0.6085512 0.010946227 1.3790001
-0.6088593 0.010993853 1.3850001
-0.60389209 0.010946227 1.3790001
-0.6015625 0.010946227 1.3790001
-0.59923297 0.010946227 1.3790001
-0.59690338 0.010946227 1.3790001
-0.59716082 0.010993853 1.3850001
-0.5948211 0.010993853 1.3850001
-0.59248137 0.010993853 1.3850001
-0.59014171 0.010993853 1.3850001
-0.58780199 0.010993853 1.3850001
-0.58546227 0.010993853 1.3850001
-0.58312261 0.010993853 1.3850001
-0.58078289 0.010993853 1.3850001
-0.57844317 0.010993853 1.3850001
-0.57610345 0.010993853 1.3850001
-0.57583517 0.011033542 1.3900001
-0.57348698 0.011033542 1.3900001
-0.57606953 0.011128797 1.4020001
-0.57370108 0.011128797 1.4020001
-0.57133269 0.011128797 1.4020001
-0.56896424 0.011128797 1.4020001
-0.56659585 0.011128797 1.4020001
-0.5642274 0.011128797 1.4020001
-0.56185901 0.011128797 1.4020001
-0.55949056 0.011128797 1.4020001
-0.55712217 0.011128797 1.4020001
-0.55475372 0.011128797 1.4020001
-0.55238533 0.011128797 1.4020001
-0.55001688 0.011128797 1.4020001
-0.54960161 0.011168486 1.4070001
-0.54722476 0.011168486 1.4070001
-0.54484785 0.011168486 1.4070001
-0.54247099 0.011168486 1.4070001
-0.54009414 0.011168486 1.4070001
-0.53771728 0.011168486 1.4070001
-0.53534037 0.011168486 1.4070001
-0.53296351 0.011168486 1.4070001
-0.53058666 0.011168486 1.4070001
-0.52820981 0.011168486 1.4070001
-0.52583295 0.011168486 1.4070001
-0.52345604 0.011168486 1.4070001
-0.52107918 0.011168486 1.4070001
-0.51870233 0.011168486 1.4070001
-0.52072906 0.011263739 1.419
-0.51833194 0.011263739 1.419
-0.51593482 0.011263739 1.419
-0.51353765 0.011263739 1.419
-0.51114053 0.011263739 1.419
-0.50874341 0.011263739 1.419
-0.50634623 0.011263739 1.419
-0.50394911 0.011263739 1.419
-0.50155199 0.011263739 1.419
-0.49915484 0.011263739 1.419
-0.49885815 0.011311366 1.4250001
-0.49645087 0.011311366 1.4250001
-0.49404359 0.011311366 1.4250001
-0.49163631 0.011311366 1.4250001
-0.48922905 0.011311366 1.4250001
-0.48682177 0.011311366 1.4250001
-0.48441449 0.011311366 1.4250001
-0.48606622 0.01140662 1.437
-0.48363867 0.01140662 1.437
-0.48121113 0.01140662 1.437
-0.4767845 0.011358993 1.4310001
-0.47635603 0.01140662 1.437
-0.47392848 0.01140662 1.437
-0.47150093 0.01140662 1.437
-0.46907339 0.01140662 1.437
-0.46664584 0.01140662 1.437
-0.46421832 0.01140662 1.437
-0.46179077 0.01140662 1.437
-0.45936322 0.01140662 1.437
-0.45693567 0.01140662 1.437
-0.45450813 0.01140662 1.437
-0.45208058 0.01140662 1.437
-0.45153049 0.011454246 1.4430001
-0.44909281 0.011454246 1.4430001
-0.44665512 0.011454246 1.4430001
-0.44421744 0.011454246 1.4430001
-0.44177976 0.011454246 1.4430001
-0.43934208 0.011454246 1.4430001
-0.43872103 0.011501873 1.4490001
-0.43627322 0.011501873 1.4490001
-0.4338254 0.011501873 1.4490001
-0.43137759 0.011501873 1.4490001
-0.42892978 0.011501873 1.4490001
-0.42824793 0.0115495 1.455
-0.42578995 0.0115495 1.455
-0.42333201 0.0115495 1.455
-0.42087406 0.0115495 1.455
-0.41841611 0.0115495 1.455
-0.41767344 0.011597127 1.4610001
-0.41520533 0.011597127 1.4610001
-0.41104224 0.0115495 1.455
-0.41026917 0.011597127 1.4610001
-0.40780106 0.011597127 1.4610001
-0.40533298 0.011597127 1.4610001
-0.4028649 0.011597127 1.4610001
-0.40039679 0.011597127 1.4610001
-0.39792871 0.011597127 1.4610001
-0.39546064 0.011597127 1.4610001
-0.39299253 0.011597127 1.4610001
-0.39052445 0.011597127 1.4610001
-0.38805634 0.011597127 1.4610001
-0.38558826 0.011597127 1.4610001
-0.38312018 0.011597127 1.4610001
-0.38065207 0.011597127 1.4610001
-0.37973711 0.011644754 1.4670001
-0.37725887 0.011644754 1.4670001
-0.37478065 0.011644754 1.4670001
-0.37230241 0.011644754 1.4670001
-0.3698242 0.011644754 1.4670001
-0.36734599 0.011644754 1.4670001
-0.36486775 0.011644754 1.4670001
-0.36387169 0.011692381 1.473
-0.36138332 0.011692381 1.473
-0.3606005 0.011747945 1.48
-0.35810032 0.011747945 1.48
-0.35560015 0.011747945 1.48
-0.35309994 0.011747945 1.48
-0.35059977 0.011747945 1.48
-0.34951079 0.011795572 1.4860001
-0.34700045 0.011795572 1.4860001
-0.34309921 0.011747945 1.48
-0.340599 0.011747945 1.48
-0.33809882 0.011747945 1.48
-0.33695918 0.011795572 1.4860001
-0.33444884 0.011795572 1.4860001
-0.33193853 0.011795572 1.4860001
-0.3294282 0.011795572 1.4860001
-0.32691789 0.011795572 1.4860001
-0.32440755 0.011795572 1.4860001
-0.32189724 0.011795572 1.4860001
-0.3193869 0.011795572 1.4860001
-0.31687659 0.011795572 1.4860001
-0.31436625 0.011795572 1.4860001
-0.31185594 0.011795572 1.4860001
-0.3093456 0.011795572 1.4860001
-0.30683529 0.011795572 1.4860001
-0.30432498 0.011795572 1.4860001
-0.30303326 0.011843198 1.4920001
-0.30051282 0.011843198 1.4920001
-0.29799235 0.011843198 1.4920001
-0.29685816 0.011898763 1.4990001
-0.29432589 0.011898763 1.4990001
-0.29179358 0.011898763 1.4990001
-0.28926131 0.011898763 1.4990001
-0.28672904 0.011898763 1.4990001
-0.28552389 0.011954327 1.506
-0.28297979 0.011954327 1.506
-0.28043568 0.011954327 1.506
-0.27789155 0.011954327 1.506
-0.27644446 0.012001955 1.5120001
-0.2738902 0.012001955 1.5120001
-0.27133596 0.012001955 1.5120001
-0.26878172 0.012001955 1.5120001
-0.26622748 0.012001955 1.5120001
-0.26367322 0.012001955 1.5120001
-0.26232785 0.01205752 1.5190001
-0.25976178 0.01205752 1.5190001
-0.25719571 0.01205752 1.5190001
-0.25462964 0.01205752 1.5190001
-0.25206357 0.01205752 1.5190001
-0.25048301 0.012105145 1.5250001
-0.24790682 0.012105145 1.5250001
-0.2453306 0.012105145 1.5250001
-0.2427544 0.012105145 1.5250001
-0.24128063 0.012160711 1.5320001
-0.2386926 0.012160711 1.5320001
-0.23610456 0.012160711 1.5320001
-0.23351654 0.012160711 1.5320001
-0.23092851 0.012160711 1.5320001
-0.22834048 0.012160711 1.5320001
-0.22678396 0.012216276 1.539
-0.2241841 0.012216276 1.539
-0.22158425 0.012216276 1.539
-0.21898438 0.012216276 1.539
-0.21638453 0.012216276 1.539
-0.21475706 0.01227184 1.5460001
-0.21310592 0.012327405 1.5530001
-0.21048242 0.012327405 1.5530001
-0.20879582 0.012382969 1.5600001
-0.20616049 0.012382969 1.5600001
-0.20352516 0.012382969 1.5600001
-0.20179124 0.012438534 1.567
-0.19914408 0.012438534 1.567
-0.19649692 0.012438534 1.567
-0.19384977 0.012438534 1.567
-0.19120261 0.012438534 1.567
-0.18939777 0.012494098 1.5740001
-0.18590829 0.012438534 1.567
-0.83111399 0.01488773 1.5460001
-0.82475108 0.014820321 1.539
-0.82215118 0.014820321 1.539
-0.72087073 0.01307732 1.358
-0.71857667 0.01307732 1.358
-0.71311784 0.01301954 1.3520001
-0.71083391 0.01301954 1.3520001
-0.71169442 0.01307732 1.358
-0.7094003 0.01307732 1.358
-0.70710623 0.01307732 1.358
-0.70481211 0.01307732 1.358
-0.70251805 0.01307732 1.358
-0.70022392 0.01307732 1.358
-0.69484621 0.01301954 1.3520001
-0.69563574 0.01307732 1.358
-0.69334167 0.01307732 1.358
-0.69104761 0.01307732 1.358
-0.68875349 0.01307732 1.358
-0.68645942 0.01307732 1.358
-0.6841653 0.01307732 1.358
-0.68187124 0.01307732 1.358
-0.68207926 0.013125469 1.363
-0.67728305 0.01307732 1.358
-0.67498893 0.01307732 1.358
-0.67269486 0.01307732 1.358
-0.67040074 0.01307732 1.358
-0.66810668 0.01307732 1.358
-0.66581255 0.01307732 1.358
-0.66351849 0.01307732 1.358
-0.66122442 0.01307732 1.358
-0.66135645 0.013125469 1.363
-0.65663624 0.01307732 1.358
-0.65675133 0.013125469 1.363
-0.65444881 0.013125469 1.363
-0.65214628 0.013125469 1.363
-0.64984375 0.013125469 1.363
-0.64754122 0.013125469 1.363
-0.6452387 0.013125469 1.363
-0.64293611 0.013125469 1.363
-0.64580375 0.013231398 1.3740001
-0.64348263 0.013231398 1.3740001
-0.6411615 0.013231398 1.3740001
-0.63884038 0.013231398 1.3740001
-0.63373971 0.013173617 1.368
-0.63419813 0.013231398 1.3740001
-0.62911773 0.013173617 1.368
-0.62955588 0.013231398 1.3740001
-0.62723482 0.013231398 1.3740001
-0.62491369 0.013231398 1.3740001
-0.61987382 0.013173617 1.368
-0.61756283 0.013173617 1.368
-0.61795032 0.013231398 1.3740001
-0.6156292 0.013231398 1.3740001
-0.61330807 0.013231398 1.3740001
-0.61098695 0.013231398 1.3740001
-0.61088079 0.013279546 1.3790001
-0.6085512 0.013279546 1.3790001
-0.60622168 0.013279546 1.3790001
-0.60389209 0.013279546 1.3790001
-0.6015625 0.013279546 1.3790001
-0.6018402 0.013337324 1.3850001
-0.59950048 0.013337324 1.3850001
-0.59716082 0.013337324 1.3850001
-0.5948211 0.013337324 1.3850001
-0.59248137 0.013337324 1.3850001
-0.59014171 0.013337324 1.3850001
-0.58992404 0.013385475 1.3900001
-0.58757591 0.013385475 1.3900001
-0.58522773 0.013385475 1.3900001
-0.5828796 0.013385475 1.3900001
-0.58053142 0.013385475 1.3900001
-0.57818329 0.013385475 1.3900001
-0.57583517 0.013385475 1.3900001
-0.57348698 0.013385475 1.3900001
-0.57360417 0.013443253 1.396
-0.57124591 0.013443253 1.396
-0.56888759 0.013443253 1.396
-0.56896424 0.013501032 1.4020001
-0.56659585 0.013501032 1.4020001
-0.5642274 0.013501032 1.4020001
-0.56185901 0.013501032 1.4020001
-0.55949056 0.013501032 1.4020001
-0.55712217 0.013501032 1.4020001
-0.55475372 0.013501032 1.4020001
-0.55238533 0.013501032 1.4020001
-0.55001688 0.013501032 1.4020001
-0.54960161 0.013549182 1.4070001
-0.54722476 0.013549182 1.4070001
-0.54484785 0.013549182 1.4070001
-0.54247099 0.013549182 1.4070001
-0.54009414 0.013549182 1.4070001
-0.53771728 0.013549182 1.4070001
-0.53534037 0.013549182 1.4070001
-0.53296351 0.013549182 1.4070001
-0.53058666 0.013549182 1.4070001
-0.52820981 0.013549182 1.4070001
-0.52583295 0.013549182 1.4070001
-0.52345604 0.013549182 1.4070001
-0.52107918 0.013549182 1.4070001
-0.51870233 0.013549182 1.4070001
-0.52293092 0.013722518 1.4250001
-0.51833194 0.01366474 1.419
-0.51593482 0.01366474 1.419
-0.51353765 0.01366474 1.419
-0.51114053 0.01366474 1.419
-0.50874341 0.01366474 1.419
-0.50634623 0.01366474 1.419
-0.50394911 0.01366474 1.419
-0.50155199 0.01366474 1.419
-0.49915484 0.01366474 1.419
-0.49885815 0.013722518 1.4250001
-0.49645087 0.013722518 1.4250001
-0.49404359 0.013722518 1.4250001
-0.49163631 0.013722518 1.4250001
-0.48922905 0.013722518 1.4250001
-0.48682177 0.013722518 1.4250001
-0.48441449 0.013722518 1.4250001
-0.48606622 0.013838077 1.437
-0.48363867 0.013838077 1.437
-0.48121113 0.013838077 1.437
-0.47878358 0.013838077 1.437
-0.47635603 0.013838077 1.437
-0.47392848 0.013838077 1.437
-0.47150093 0.013838077 1.437
-0.46907339 0.013838077 1.437
-0.46664584 0.013838077 1.437
-0.46421832 0.013838077 1.437
-0.46179077 0.013838077 1.437
-0.46128121 0.013895855 1.4430001
-0.45884353 0.013895855 1.4430001
-0.45450813 0.013838077 1.437
-0.45396817 0.013895855 1.4430001
-0.45153049 0.013895855 1.4430001
-0.44909281 0.013895855 1.4430001
-0.44665512 0.013895855 1.4430001
-0.4460645 0.013953635 1.4490001
-0.44177976 0.013895855 1.4430001
-0.43934208 0.013895855 1.4430001
-0.43872103 0.013953635 1.4490001
-0.43627322 0.013953635 1.4490001
-0.4338254 0.013953635 1.4490001
-0.43137759 0.013953635 1.4490001
-0.42892978 0.013953635 1.4490001
-0.42824793 0.014011413 1.455
-0.42578995 0.014011413 1.455
-0.42333201 0.014011413 1.455
-0.42087406 0.014011413 1.455
-0.41841611 0.014011413 1.455
-0.41767344 0.014069194 1.4610001
-0.41350019 0.014011413 1.455
-0.41104224 0.014011413 1.455
-0.41026917 0.014069194 1.4610001
-0.40780106 0.014069194 1.4610001
-0.40533298 0.014069194 1.4610001
-0.4028649 0.014069194 1.4610001
-0.40039679 0.014069194 1.4610001
-0.39792871 0.014069194 1.4610001
-0.39546064 0.014069194 1.4610001
-0.39299253 0.014069194 1.4610001
-0.39052445 0.014069194 1.4610001
-0.38805634 0.014069194 1.4610001
-0.38558826 0.014069194 1.4610001
-0.38312018 0.014069194 1.4610001
-0.38221532 0.014126972 1.4670001
-0.37973711 0.014126972 1.4670001
-0.37725887 0.014126972 1.4670001
-0.37478065 0.014126972 1.4670001
-0.37230241 0.014126972 1.4670001
-0.37133676 0.014184752 1.473
-0.36734599 0.014126972 1.4670001
-0.36486775 0.014126972 1.4670001
-0.36387169 0.014184752 1.473
-0.36310071 0.01425216 1.48
-0.3606005 0.01425216 1.48
-0.35810032 0.01425216 1.48
-0.35560015 0.01425216 1.48
-0.35309994 0.01425216 1.48
-0.35059977 0.01425216 1.48
-0.34809956 0.01425216 1.48
-0.34559938 0.01425216 1.48
-0.34309921 0.01425216 1.48
-0.340599 0.01425216 1.48
-0.33809882 0.01425216 1.48
-0.33695918 0.014309939 1.4860001
-0.33444884 0.014309939 1.4860001
-0.33193853 0.014309939 1.4860001
-0.3294282 0.014309939 1.4860001
-0.32691789 0.014309939 1.4860001
-0.32440755 0.014309939 1.4860001
-0.32189724 0.014309939 1.4860001
-0.3193869 0.014309939 1.4860001
-0.31687659 0.014309939 1.4860001
-0.31436625 0.014309939 1.4860001
-0.31185594 0.014309939 1.4860001
-0.3093456 0.014309939 1.4860001
-0.30683529 0.014309939 1.4860001
-0.30432498 0.014309939 1.4860001
-0.30303326 0.014367717 1.4920001
-0.30051282 0.014367717 1.4920001
-0.29799235 0.014367717 1.4920001
-0.29685816 0.014435126 1.4990001
-0.29432589 0.014435126 1.4990001
-0.29179358 0.014435126 1.4990001
-0.28926131 0.014435126 1.4990001
-0.288068 0.014502536 1.506
-0.28552389 0.014502536 1.506
-0.28297979 0.014502536 1.506
-0.28043568 0.014502536 1.506
-0.2789987 0.014560314 1.5120001
-0.27644446 0.014560314 1.5120001
-0.2738902 0.014560314 1.5120001
-0.27133596 0.014560314 1.5120001
-0.26878172 0.014560314 1.5120001
-0.26622748 0.014560314 1.5120001
-0.26367322 0.014560314 1.5120001
-0.26111898 0.014560314 1.5120001
-0.25976178 0.014627723 1.5190001
-0.25719571 0.014627723 1.5190001
-0.25462964 0.014627723 1.5190001
-0.25206357 0.014627723 1.5190001
-0.25048301 0.014685503 1.5250001
-0.24790682 0.014685503 1.5250001
-0.2453306 0.014685503 1.5250001
-0.24386866 0.014752912 1.5320001
-0.24128063 0.014752912 1.5320001
-0.2386926 0.014752912 1.5320001
-0.23610456 0.014752912 1.5320001
-0.23351654 0.014752912 1.5320001
-0.23092851 0.014752912 1.5320001
-0.22938381 0.014820321 1.539
-0.22678396 0.014820321 1.539
-0.2241841 0.014820321 1.539
-0.22158425 0.014820321 1.539
-0.21898438 0.014820321 1.539
-0.21638453 0.014820321 1.539
-0.21475706 0.01488773 1.5460001
-0.21310592 0.014955139 1.5530001
-0.21048242 0.014955139 1.5530001
-0.20879582 0.015022547 1.5600001
-0.20616049 0.015022547 1.5600001
-0.20352516 0.015022547 1.5600001
-0.20179124 0.015089956 1.567
-0.19914408 0.015089956 1.567
-0.19649692 0.015089956 1.567
-0.19384977 0.015089956 1.567
-0.19120261 0.015089956 1.567
-0.18855545 0.015089956 1.567
-0.18590829 0.015089956 1.567
-0.83111399 0.017503619 1.5460001
-0.82475108 0.017424366 1.539
-0.82215118 0.017424366 1.539
-0.72352493 0.015431714 1.363
-0.7212224 0.015431714 1.363
-0.71628261 0.015375106 1.358
-0.71398848 0.015375106 1.358
-0.71169442 0.015375106 1.358
-0.71201223 0.015431714 1.363
-0.70710623 0.015375106 1.358
-0.70481211 0.015375106 1.358
-0.69682753 0.015250565 1.3470001
-0.70022392 0.015375106 1.358
-0.69484621 0.015307175 1.3520001
-0.69256228 0.015307175 1.3520001
-0.69027829 0.015307175 1.3520001
-0.69104761 0.015375106 1.358
-0.68875349 0.015375106 1.358
-0.68645942 0.015375106 1.358
-0.6841653 0.015375106 1.358
-0.68187124 0.015375106 1.358
-0.67957711 0.015375106 1.358
-0.67728305 0.015375106 1.358
-0.67498893 0.015375106 1.358
-0.67269486 0.015375106 1.358
-0.67040074 0.015375106 1.358
-0.66810668 0.015375106 1.358
-0.66581255 0.015375106 1.358
-0.6659615 0.015431714 1.363
-0.66365898 0.015431714 1.363
-0.6589303 0.015375106 1.358
-0.65663624 0.015375106 1.358
-0.65675133 0.015431714 1.363
-0.65444881 0.015431714 1.363
-0.65214628 0.015431714 1.363
-0.64984375 0.015431714 1.363
-0.64754122 0.015431714 1.363
-0.6452387 0.015431714 1.363
-0.64293611 0.015431714 1.363
-0.64815384 0.015612865 1.3790001
-0.64348263 0.015556256 1.3740001
-0.64349473 0.015612865 1.3790001
-0.63884038 0.015556256 1.3740001
-0.63651925 0.015556256 1.3740001
-0.63419813 0.015556256 1.3740001
-0.63187701 0.015556256 1.3740001
-0.62955588 0.015556256 1.3740001
-0.62723482 0.015556256 1.3740001
-0.62491369 0.015556256 1.3740001
-0.61987382 0.015488326 1.368
-0.61756283 0.015488326 1.368
-0.61795032 0.015556256 1.3740001
-0.6178695 0.015612865 1.3790001
-0.61553991 0.015612865 1.3790001
-0.61098695 0.015556256 1.3740001
-0.61088079 0.015612865 1.3790001
-0.6085512 0.015612865 1.3790001
-0.60622168 0.015612865 1.3790001
-0.60389209 0.015612865 1.3790001
-0.6015625 0.015612865 1.3790001
-0.6018402 0.015680796 1.3850001
-0.59950048 0.015680796 1.3850001
-0.59716082 0.015680796 1.3850001
-0.5948211 0.015680796 1.3850001
-0.59462035 0.015737407 1.3900001
-0.59227216 0.015737407 1.3900001
-0.59247047 0.015805338 1.396
-0.58757591 0.015737407 1.3900001
-0.58522773 0.015737407 1.3900001
-0.5828796 0.015737407 1.3900001
-0.58053142 0.015737407 1.3900001
-0.57818329 0.015737407 1.3900001
-0.57583517 0.015737407 1.3900001
-0.57348698 0.015737407 1.3900001
-0.57360417 0.015805338 1.396
-0.57124591 0.015805338 1.396
-0.56888759 0.015805338 1.396
-0.56652933 0.015805338 1.396
-0.56417108 0.015805338 1.396
-0.5642274 0.015873268 1.4020001
-0.56185901 0.015873268 1.4020001
-0.55949056 0.015873268 1.4020001
-0.55712217 0.015873268 1.4020001
-0.55475372 0.015873268 1.4020001
-0.55238533 0.015873268 1.4020001
-0.55197847 0.015929878 1.4070001
-0.54960161 0.015929878 1.4070001
-0.54722476 0.015929878 1.4070001
-0.54484785 0.015929878 1.4070001
-0.54247099 0.015929878 1.4070001
-0.54009414 0.015929878 1.4070001
-0.53771728 0.015929878 1.4070001
-0.53534037 0.015929878 1.4070001
-0.53296351 0.015929878 1.4070001
-0.53058666 0.015929878 1.4070001
-0.53046227 0.015997808 1.4130001
-0.52807528 0.015997808 1.4130001
-0.52345604 0.015929878 1.4070001
-0.52107918 0.015929878 1.4070001
-0.52091426 0.015997808 1.4130001
-0.51852727 0.015997808 1.4130001
-0.51614028 0.015997808 1.4130001
-0.51593482 0.016065739 1.419
-0.51353765 0.016065739 1.419
-0.51114053 0.016065739 1.419
-0.50874341 0.016065739 1.419
-0.50634623 0.016065739 1.419
-0.50394911 0.016065739 1.419
-0.50155199 0.016065739 1.419
-0.49915484 0.016065739 1.419
-0.49885815 0.016133672 1.4250001
-0.49645087 0.016133672 1.4250001
-0.49404359 0.016133672 1.4250001
-0.49163631 0.016133672 1.4250001
-0.48922905 0.016133672 1.4250001
-0.48682177 0.016133672 1.4250001
-0.48441449 0.016133672 1.4250001
-0.48403671 0.016201602 1.4310001
-0.4816193 0.016201602 1.4310001
-0.48121113 0.016269535 1.437
-0.4767845 0.016201602 1.4310001
-0.47436708 0.016201602 1.4310001
-0.47392848 0.016269535 1.437
-0.47150093 0.016269535 1.437
-0.46907339 0.016269535 1.437
-0.46469745 0.016201602 1.4310001
-0.46421832 0.016269535 1.437
-0.46179077 0.016269535 1.437
-0.45936322 0.016269535 1.437
-0.45693567 0.016269535 1.437
-0.45450813 0.016269535 1.437
-0.45396817 0.016337465 1.4430001
-0.45153049 0.016337465 1.4430001
-0.44909281 0.016337465 1.4430001
-0.44665512 0.016337465 1.4430001
-0.4460645 0.016405396 1.4490001
-0.44177976 0.016337465 1.4430001
-0.43934208 0.016337465 1.4430001
-0.43872103 0.016405396 1.4490001
-0.43627322 0.016405396 1.4490001
-0.4338254 0.016405396 1.4490001
-0.43137759 0.016405396 1.4490001
-0.42892978 0.016405396 1.4490001
-0.42824793 0.016473327 1.455
-0.42578995 0.016473327 1.455
-0.42333201 0.016473327 1.455
-0.42087406 0.016473327 1.455
-0.41841611 0.016473327 1.455
-0.41595814 0.016473327 1.455
-0.41350019 0.016473327 1.455
-0.41104224 0.016473327 1.455
-0.41026917 0.016541259 1.4610001
-0.40780106 0.016541259 1.4610001
-0.40533298 0.016541259 1.4610001
-0.4028649 0.016541259 1.4610001
-0.40039679 0.016541259 1.4610001
-0.39792871 0.016541259 1.4610001
-0.39546064 0.016541259 1.4610001
-0.39299253 0.016541259 1.4610001
-0.39052445 0.016541259 1.4610001
-0.38805634 0.016541259 1.4610001
-0.38558826 0.016541259 1.4610001
-0.38312018 0.016541259 1.4610001
-0.38221532 0.01660919 1.4670001
-0.37973711 0.01660919 1.4670001
-0.37725887 0.01660919 1.4670001
-0.37631351 0.016677123 1.473
-0.37382513 0.016677123 1.473
-0.37133676 0.016677123 1.473
-0.36884841 0.016677123 1.473
-0.36636004 0.016677123 1.473
-0.36387169 0.016677123 1.473
-0.36310071 0.016756374 1.48
-0.3606005 0.016756374 1.48
-0.35810032 0.016756374 1.48
-0.35560015 0.016756374 1.48
-0.35309994 0.016756374 1.48
-0.35059977 0.016756374 1.48
-0.34809956 0.016756374 1.48
-0.34559938 0.016756374 1.48
-0.34309921 0.016756374 1.48
-0.340599 0.016756374 1.48
-0.33809882 0.016756374 1.48
-0.33695918 0.016824305 1.4860001
-0.33444884 0.016824305 1.4860001
-0.33193853 0.016824305 1.4860001
-0.3294282 0.016824305 1.4860001
-0.32691789 0.016824305 1.4860001
-0.32440755 0.016824305 1.4860001
-0.32189724 0.016824305 1.4860001
-0.3193869 0.016824305 1.4860001
-0.31687659 0.016824305 1.4860001
-0.31436625 0.016824305 1.4860001
-0.31185594 0.016824305 1.4860001
-0.3093456 0.016824305 1.4860001
-0.30807421 0.016892238 1.4920001
-0.30555373 0.016892238 1.4920001
-0.30303326 0.016892238 1.4920001
-0.30051282 0.016892238 1.4920001
-0.29939047 0.016971489 1.4990001
-0.29685816 0.016971489 1.4990001
-0.29432589 0.016971489 1.4990001
-0.29315621 0.017050743 1.506
-0.2906121 0.017050743 1.506
-0.288068 0.017050743 1.506
-0.28552389 0.017050743 1.506
-0.28297979 0.017050743 1.506
-0.28155294 0.017118674 1.5120001
-0.2789987 0.017118674 1.5120001
-0.27644446 0.017118674 1.5120001
-0.2738902 0.017118674 1.5120001
-0.27133596 0.017118674 1.5120001
-0.26878172 0.017118674 1.5120001
-0.26745999 0.017197927 1.5190001
-0.26367322 0.017118674 1.5120001
-0.26111898 0.017118674 1.5120001
-0.25856474 0.017118674 1.5120001
-0.25719571 0.017197927 1.5190001
-0.25462964 0.017197927 1.5190001
-0.25206357 0.017197927 1.5190001
-0.24949749 0.017197927 1.5190001
-0.24693142 0.017197927 1.5190001
-0.2453306 0.01726586 1.5250001
-0.2427544 0.01726586 1.5250001
-0.24128063 0.017345114 1.5320001
-0.2386926 0.017345114 1.5320001
-0.23610456 0.017345114 1.5320001
-0.23351654 0.017345114 1.5320001
-0.23092851 0.017345114 1.5320001
-0.22938381 0.017424366 1.539
-0.22678396 0.017424366 1.539
-0.2241841 0.017424366 1.539
-0.22158425 0.017424366 1.539
-0.21898438 0.017424366 1.539
-0.21638453 0.017424366 1.539
-0.21475706 0.017503619 1.5460001
-0.21310592 0.017582873 1.5530001
-0.21048242 0.017582873 1.5530001
-0.20879582 0.017662125 1.5600001
-0.20616049 0.017662125 1.5600001
-0.20352516 0.017662125 1.5600001
-0.20179124 0.017741378 1.567
-0.19825448 0.017662125 1.5600001
-0.19561915 0.017662125 1.5600001
-0.19384977 0.017741378 1.567
-0.19034849 0.017662125 1.5600001
-0.18855545 0.017741378 1.567
-0.18507783 0.017662125 1.5600001
-0.82735091 0.02002841 1.539
-0.82475108 0.02002841 1.539
-0.82215118 0.02002841 1.539
-0.71730709 0.017529739 1.3470001
-0.71768576 0.017594809 1.3520001
-0.71540183 0.017594809 1.3520001
-0.71311784 0.017594809 1.3520001
-0.70820504 0.017529739 1.3470001
-0.70854992 0.017594809 1.3520001
-0.70365405 0.017529739 1.3470001
-0.70398206 0.017594809 1.3520001
-0.70169806 0.017594809 1.3520001
-0.69682753 0.017529739 1.3470001
-0.69713014 0.017594809 1.3520001
-0.69484621 0.017594809 1.3520001
-0.69563574 0.017672893 1.358
-0.69334167 0.017672893 1.358
-0.69104761 0.017672893 1.358
-0.68875349 0.017672893 1.358
-0.68645942 0.017672893 1.358
-0.6841653 0.017672893 1.358
-0.68187124 0.017672893 1.358
-0.68207926 0.01773796 1.363
-0.67977673 0.01773796 1.363
-0.6774742 0.01773796 1.363
-0.67517167 0.01773796 1.363
-0.67040074 0.017672893 1.358
-0.67056656 0.01773796 1.363
-0.66826403 0.01773796 1.363
-0.6659615 0.01773796 1.363
-0.66365898 0.01773796 1.363
-0.6589303 0.017672893 1.358
-0.65663624 0.017672893 1.358
-0.65675133 0.01773796 1.363
-0.65444881 0.01773796 1.363
-0.65214628 0.01773796 1.363
-0.64984375 0.01773796 1.363
-0.64754122 0.01773796 1.363
-0.6476056 0.017803032 1.368
-0.64812487 0.017881116 1.3740001
-0.64815384 0.017946184 1.3790001
-0.64348263 0.017881116 1.3740001
-0.64349473 0.017946184 1.3790001
-0.64116514 0.017946184 1.3790001
-0.63651925 0.017881116 1.3740001
-0.63419813 0.017881116 1.3740001
-0.63187701 0.017881116 1.3740001
-0.62955588 0.017881116 1.3740001
-0.62723482 0.017881116 1.3740001
-0.62491369 0.017881116 1.3740001
-0.61987382 0.017803032 1.368
-0.61756283 0.017803032 1.368
-0.61795032 0.017881116 1.3740001
-0.6156292 0.017881116 1.3740001
-0.61062986 0.017803032 1.368
-0.61098695 0.017881116 1.3740001
-0.61088079 0.017946184 1.3790001
-0.6063447 0.017881116 1.3740001
-0.60402358 0.017881116 1.3740001
-0.60389209 0.017946184 1.3790001
-0.6015625 0.017946184 1.3790001
-0.6018402 0.018024268 1.3850001
-0.59950048 0.018024268 1.3850001
-0.59931666 0.018089337 1.3900001
-0.59696847 0.018089337 1.3900001
-0.59462035 0.018089337 1.3900001
-0.59482872 0.018167421 1.396
-0.59247047 0.018167421 1.396
-0.58757591 0.018089337 1.3900001
-0.58522773 0.018089337 1.3900001
-0.5828796 0.018089337 1.3900001
-0.58053142 0.018089337 1.3900001
-0.57818329 0.018089337 1.3900001
-0.57832074 0.018167421 1.396
-0.57348698 0.018089337 1.3900001
-0.57360417 0.018167421 1.396
-0.57124591 0.018167421 1.396
-0.57133269 0.018245505 1.4020001
-0.56896424 0.018245505 1.4020001
-0.56659585 0.018245505 1.4020001
-0.5642274 0.018245505 1.4020001
-0.56185901 0.018245505 1.4020001
-0.55949056 0.018245505 1.4020001
-0.55712217 0.018245505 1.4020001
-0.55475372 0.018245505 1.4020001
-0.55435532 0.018310573 1.4070001
-0.55197847 0.018310573 1.4070001
-0.54960161 0.018310573 1.4070001
-0.54722476 0.018310573 1.4070001
-0.54484785 0.018310573 1.4070001
-0.54478431 0.018388657 1.4130001
-0.54239732 0.018388657 1.4130001
-0.54001027 0.018388657 1.4130001
-0.53762329 0.018388657 1.4130001
-0.5352363 0.018388657 1.4130001
-0.53284931 0.018388657 1.4130001
-0.53271478 0.018466741 1.419
-0.52807528 0.018388657 1.4130001
-0.52568829 0.018388657 1.4130001
-0.5233013 0.018388657 1.4130001
-0.52091426 0.018388657 1.4130001
-0.51852727 0.018388657 1.4130001
-0.51833194 0.018466741 1.419
-0.51375324 0.018388657 1.4130001
-0.51136625 0.018388657 1.4130001
-0.51114053 0.018466741 1.419
-0.50874341 0.018466741 1.419
-0.50634623 0.018466741 1.419
-0.50607997 0.018544825 1.4250001
-0.50367272 0.018544825 1.4250001
-0.50126541 0.018544825 1.4250001
-0.49885815 0.018544825 1.4250001
-0.49645087 0.018544825 1.4250001
-0.49404359 0.018544825 1.4250001
-0.49163631 0.018544825 1.4250001
-0.48922905 0.018544825 1.4250001
-0.48682177 0.018544825 1.4250001
-0.48441449 0.018544825 1.4250001
-0.48403671 0.018622909 1.4310001
-0.4816193 0.018622909 1.4310001
-0.47920191 0.018622909 1.4310001
-0.4767845 0.018622909 1.4310001
-0.47436708 0.018622909 1.4310001
-0.47194967 0.018622909 1.4310001
-0.46953225 0.018622909 1.4310001
-0.46907339 0.018700991 1.437
-0.46469745 0.018622909 1.4310001
-0.46421832 0.018700991 1.437
-0.46179077 0.018700991 1.437
-0.45936322 0.018700991 1.437
-0.45693567 0.018700991 1.437
-0.45450813 0.018700991 1.437
-0.45396817 0.018779075 1.4430001
-0.45153049 0.018779075 1.4430001
-0.44909281 0.018779075 1.4430001
-0.44665512 0.018779075 1.4430001
-0.4460645 0.018857157 1.4490001
-0.44177976 0.018779075 1.4430001
-0.43934208 0.018779075 1.4430001
-0.43872103 0.018857157 1.4490001
-0.43627322 0.018857157 1.4490001
-0.4338254 0.018857157 1.4490001
-0.43137759 0.018857157 1.4490001
-0.42892978 0.018857157 1.4490001
-0.42648196 0.018857157 1.4490001
-0.42578995 0.018935241 1.455
-0.42333201 0.018935241 1.455
-0.42087406 0.018935241 1.455
-0.41841611 0.018935241 1.455
-0.41595814 0.018935241 1.455
-0.41350019 0.018935241 1.455
-0.41273725 0.019013327 1.4610001
-0.41026917 0.019013327 1.4610001
-0.40780106 0.019013327 1.4610001
-0.40533298 0.019013327 1.4610001
-0.4028649 0.019013327 1.4610001
-0.40039679 0.019013327 1.4610001
-0.39792871 0.019013327 1.4610001
-0.39546064 0.019013327 1.4610001
-0.39299253 0.019013327 1.4610001
-0.39052445 0.019013327 1.4610001
-0.38805634 0.019013327 1.4610001
-0.38558826 0.019013327 1.4610001
-0.38312018 0.019013327 1.4610001
-0.38065207 0.019013327 1.4610001
-0.37973711 0.019091409 1.4670001
-0.37725887 0.019091409 1.4670001
-0.37631351 0.019169493 1.473
-0.37382513 0.019169493 1.473
-0.37133676 0.019169493 1.473
-0.36884841 0.019169493 1.473
-0.36636004 0.019169493 1.473
-0.36560088 0.019260589 1.48
-0.36310071 0.019260589 1.48
-0.3606005 0.019260589 1.48
-0.35810032 0.019260589 1.48
-0.35560015 0.019260589 1.48
-0.35309994 0.019260589 1.48
-0.35059977 0.019260589 1.48
-0.34809956 0.019260589 1.48
-0.34559938 0.019260589 1.48
-0.34309921 0.019260589 1.48
-0.34197983 0.019338673 1.4860001
-0.33946949 0.019338673 1.4860001
-0.33695918 0.019338673 1.4860001
-0.33444884 0.019338673 1.4860001
-0.33193853 0.019338673 1.4860001
-0.3294282 0.019338673 1.4860001
-0.32691789 0.019338673 1.4860001
-0.32571742 0.019416755 1.4920001
-0.32319695 0.019416755 1.4920001
-0.32067648 0.019416755 1.4920001
-0.31815603 0.019416755 1.4920001
-0.31563556 0.019416755 1.4920001
-0.31311512 0.019416755 1.4920001
-0.3093456 0.019338673 1.4860001
-0.30951959 0.019507853 1.4990001
-0.30698732 0.019507853 1.4990001
-0.30445501 0.019507853 1.4990001
-0.30192274 0.019507853 1.4990001
-0.29939047 0.019507853 1.4990001
-0.29685816 0.019507853 1.4990001
-0.29570034 0.019598952 1.506
-0.29315621 0.019598952 1.506
-0.2906121 0.019598952 1.506
-0.288068 0.019598952 1.506
-0.28552389 0.019598952 1.506
-0.28410718 0.019677034 1.5120001
-0.28155294 0.019677034 1.5120001
-0.2789987 0.019677034 1.5120001
-0.27644446 0.019677034 1.5120001
-0.2738902 0.019677034 1.5120001
-0.27133596 0.019677034 1.5120001
-0.26878172 0.019677034 1.5120001
-0.26622748 0.019677034 1.5120001
-0.26367322 0.019677034 1.5120001
-0.26232785 0.019768132 1.5190001
-0.25856474 0.019677034 1.5120001
-0.25719571 0.019768132 1.5190001
-0.25462964 0.019768132 1.5190001
-0.25206357 0.019768132 1.5190001
-0.24949749 0.019768132 1.5190001
-0.24693142 0.019768132 1.5190001
-0.24436535 0.019768132 1.5190001
-0.2427544 0.019846216 1.5250001
-0.24128063 0.019937314 1.5320001
-0.2386926 0.019937314 1.5320001
-0.23610456 0.019937314 1.5320001
-0.23351654 0.019937314 1.5320001
-0.23092851 0.019937314 1.5320001
-0.22938381 0.02002841 1.539
-0.22678396 0.02002841 1.539
-0.2241841 0.02002841 1.539
-0.22158425 0.02002841 1.539
-0.21898438 0.02002841 1.539
-0.21638453 0.02002841 1.539
-0.21475706 0.020119509 1.5460001
-0.21310592 0.020210605 1.5530001
-0.21048242 0.020210605 1.5530001
-0.20879582 0.020301703 1.5600001
-0.20616049 0.020301703 1.5600001
-0.20352516 0.020301703 1.5600001
-0.20179124 0.0203928 1.567
-0.19825448 0.020301703 1.5600001
-0.19561915 0.020301703 1.5600001
-0.19298382 0.020301703 1.5600001
-0.19034849 0.020301703 1.5600001
-0.18771316 0.020301703 1.5600001
-0.18507783 0.020301703 1.5600001
-0.82735091 0.022632455 1.539
-0.82475108 0.022632455 1.539
-0.71958262 0.019808915 1.3470001
-0.71730709 0.019808915 1.3470001
-0.71768576 0.019882442 1.3520001
-0.71540183 0.019882442 1.3520001
-0.71311784 0.019882442 1.3520001
-0.70820504 0.019808915 1.3470001
-0.70592958 0.019808915 1.3470001
-0.70365405 0.019808915 1.3470001
-0.70137852 0.019808915 1.3470001
-0.70169806 0.019882442 1.3520001
-0.69682753 0.019808915 1.3470001
-0.69713014 0.019882442 1.3520001
-0.69484621 0.019882442 1.3520001
-0.69563574 0.019970678 1.358
-0.69334167 0.019970678 1.358
-0.69104761 0.019970678 1.358
-0.68875349 0.019970678 1.358
-0.68645942 0.019970678 1.358
-0.68668437 0.020044208 1.363
-0.68438178 0.020044208 1.363
-0.68207926 0.020044208 1.363
-0.67977673 0.020044208 1.363
-0.6774742 0.020044208 1.363
-0.67517167 0.020044208 1.363
-0.67286915 0.020044208 1.363
-0.67056656 0.020044208 1.363
-0.66826403 0.020044208 1.363
-0.6659615 0.020044208 1.363
-0.66365898 0.020044208 1.363
-0.66135645 0.020044208 1.363
-0.65905392 0.020044208 1.363
-0.65675133 0.020044208 1.363
-0.65684956 0.020117739 1.368
-0.65453857 0.020117739 1.368
-0.65222758 0.020117739 1.368
-0.64991659 0.020117739 1.368
-0.6476056 0.020117739 1.368
-0.64812487 0.020205975 1.3740001
-0.64815384 0.020279502 1.3790001
-0.64348263 0.020205975 1.3740001
-0.64349473 0.020279502 1.3790001
-0.63884038 0.020205975 1.3740001
-0.63651925 0.020205975 1.3740001
-0.63419813 0.020205975 1.3740001
-0.63187701 0.020205975 1.3740001
-0.62955588 0.020205975 1.3740001
-0.62723482 0.020205975 1.3740001
-0.62491369 0.020205975 1.3740001
-0.61987382 0.020117739 1.368
-0.61756283 0.020117739 1.368
-0.61795032 0.020205975 1.3740001
-0.6156292 0.020205975 1.3740001
-0.61330807 0.020205975 1.3740001
-0.61098695 0.020205975 1.3740001
-0.61088079 0.020279502 1.3790001
-0.6085512 0.020279502 1.3790001
-0.60622168 0.020279502 1.3790001
-0.60389209 0.020279502 1.3790001
-0.6015625 0.020279502 1.3790001
-0.6018402 0.020367738 1.3850001
-0.59950048 0.020367738 1.3850001
-0.59716082 0.020367738 1.3850001
-0.59696847 0.02044127 1.3900001
-0.59462035 0.02044127 1.3900001
-0.59227216 0.02044127 1.3900001
-0.59247047 0.020529505 1.396
-0.59011221 0.020529505 1.396
-0.58775389 0.020529505 1.396
-0.58539563 0.020529505 1.396
-0.58303732 0.020529505 1.396
-0.57818329 0.02044127 1.3900001
-0.57832074 0.020529505 1.396
-0.57596248 0.020529505 1.396
-0.57360417 0.020529505 1.396
-0.57370108 0.02061774 1.4020001
-0.57133269 0.02061774 1.4020001
-0.56896424 0.02061774 1.4020001
-0.56659585 0.02061774 1.4020001
-0.5642274 0.02061774 1.4020001
-0.56185901 0.02061774 1.4020001
-0.55949056 0.02061774 1.4020001
-0.55712217 0.02061774 1.4020001
-0.55475372 0.02061774 1.4020001
-0.55435532 0.02069127 1.4070001
-0.55197847 0.02069127 1.4070001
-0.54960161 0.02069127 1.4070001
-0.54722476 0.02069127 1.4070001
-0.54484785 0.02069127 1.4070001
-0.54478431 0.020779505 1.4130001
-0.54239732 0.020779505 1.4130001
-0.54230332 0.020867741 1.419
-0.53762329 0.020779505 1.4130001
-0.5352363 0.020779505 1.4130001
-0.53284931 0.020779505 1.4130001
-0.53271478 0.020867741 1.419
-0.52807528 0.020779505 1.4130001
-0.52568829 0.020779505 1.4130001
-0.5233013 0.020779505 1.4130001
-0.52091426 0.020779505 1.4130001
-0.51852727 0.020779505 1.4130001
-0.51833194 0.020867741 1.419
-0.51375324 0.020779505 1.4130001
-0.51136625 0.020779505 1.4130001
-0.51114053 0.020867741 1.419
-0.50874341 0.020867741 1.419
-0.50634623 0.020867741 1.419
-0.50607997 0.020955978 1.4250001
-0.50367272 0.020955978 1.4250001
-0.50126541 0.020955978 1.4250001
-0.49885815 0.020955978 1.4250001
-0.49645087 0.020955978 1.4250001
-0.49404359 0.020955978 1.4250001
-0.49163631 0.020955978 1.4250001
-0.48922905 0.020955978 1.4250001
-0.48682177 0.020955978 1.4250001
-0.48441449 0.020955978 1.4250001
-0.48403671 0.021044213 1.4310001
-0.4816193 0.021044213 1.4310001
-0.47920191 0.021044213 1.4310001
-0.4767845 0.021044213 1.4310001
-0.47436708 0.021044213 1.4310001
-0.47194967 0.021044213 1.4310001
-0.46953225 0.021044213 1.4310001
-0.46907339 0.021132449 1.437
-0.46469745 0.021044213 1.4310001
-0.46421832 0.021132449 1.437
-0.46179077 0.021132449 1.437
-0.45936322 0.021132449 1.437
-0.45693567 0.021132449 1.437
-0.45450813 0.021132449 1.437
-0.45396817 0.021220684 1.4430001
-0.45153049 0.021220684 1.4430001
-0.44909281 0.021220684 1.4430001
-0.44665512 0.021220684 1.4430001
-0.4460645 0.021308919 1.4490001
-0.44177976 0.021220684 1.4430001
-0.43934208 0.021220684 1.4430001
-0.43872103 0.021308919 1.4490001
-0.43627322 0.021308919 1.4490001
-0.4338254 0.021308919 1.4490001
-0.42959136 0.021220684 1.4430001
-0.42715368 0.021220684 1.4430001
-0.42648196 0.021308919 1.4490001
-0.42403412 0.021308919 1.4490001
-0.4215863 0.021308919 1.4490001
-0.41913849 0.021308919 1.4490001
-0.41841611 0.021397155 1.455
-0.41595814 0.021397155 1.455
-0.41350019 0.021397155 1.455
-0.41273725 0.021485392 1.4610001
-0.41026917 0.021485392 1.4610001
-0.40780106 0.021485392 1.4610001
-0.40533298 0.021485392 1.4610001
-0.4028649 0.021485392 1.4610001
-0.40039679 0.021485392 1.4610001
-0.39792871 0.021485392 1.4610001
-0.39546064 0.021485392 1.4610001
-0.39299253 0.021485392 1.4610001
-0.39052445 0.021485392 1.4610001
-0.38805634 0.021485392 1.4610001
-0.38558826 0.021485392 1.4610001
-0.38312018 0.021485392 1.4610001
-0.38065207 0.021485392 1.4610001
-0.37818399 0.021485392 1.4610001
-0.37880185 0.021661863 1.473
-0.37631351 0.021661863 1.473
-0.37560162 0.021764804 1.48
-0.37310144 0.021764804 1.48
-0.37060127 0.021764804 1.48
-0.36810106 0.021764804 1.48
-0.36560088 0.021764804 1.48
-0.36310071 0.021764804 1.48
-0.3606005 0.021764804 1.48
-0.35810032 0.021764804 1.48
-0.35560015 0.021764804 1.48
-0.35142988 0.021661863 1.473
-0.35059977 0.021764804 1.48
-0.34809956 0.021764804 1.48
-0.34559938 0.021764804 1.48
-0.34309921 0.021764804 1.48
-0.34197983 0.021853039 1.4860001
-0.33946949 0.021853039 1.4860001
-0.33695918 0.021853039 1.4860001
-0.33444884 0.021853039 1.4860001
-0.33193853 0.021853039 1.4860001
-0.33075833 0.021941274 1.4920001
-0.32823786 0.021941274 1.4920001
-0.32571742 0.021941274 1.4920001
-0.32319695 0.021941274 1.4920001
-0.32067648 0.021941274 1.4920001
-0.31964871 0.022044217 1.4990001
-0.31563556 0.021941274 1.4920001
-0.31311512 0.021941274 1.4920001
-0.31205186 0.022044217 1.4990001
-0.30951959 0.022044217 1.4990001
-0.30698732 0.022044217 1.4990001
-0.30445501 0.022044217 1.4990001
-0.30192274 0.022044217 1.4990001
-0.30078855 0.022147158 1.506
-0.29824445 0.022147158 1.506
-0.29570034 0.022147158 1.506
-0.29315621 0.022147158 1.506
-0.2906121 0.022147158 1.506
-0.288068 0.022147158 1.506
-0.28552389 0.022147158 1.506
-0.28410718 0.022235394 1.5120001
-0.28155294 0.022235394 1.5120001
-0.2789987 0.022235394 1.5120001
